ncols         526
nrows         32
xllcorner     538920.836453
yllcorner     4212547.47659
cellsize      100
cellvalue     0.01
NODATA_value  -9999
-9999 -9999 -9999 -9999 -9999 -9999 -9999 -9999 -9999 -9999 -9999 -9999 -9999 -9999 -9999 -9999 -9999 -9999 -9999 -9999 -9999 -9999 -9999 -9999 -9999 -9999 -9999 -9999 -9999 -9999 -9999 -9999 -9999 -9999 -9999 -9999 -9999 -9999 -9999 -9999 -9999 -9999 -9999 -9999 -9999 -9999 -9999 -9999 -9999 -9999 -9999 -9999 -9999 -9999 -9999 -9999 -9999 -9999 -9999 -9999 -9999 -9999 95 95 95 95 95 95 96 106 116 126 126 136 136 146 156 157 157 157 157 157 167 177 167 167 167 168 168 168 178 178 178 178 188 188 188 188 198 218 268 218 198 188 188 198 198 198 199 209 209 209 209 209 219 219 219 219 229 229 229 229 229 229 229 229 239 239 239 249 249 249 249 249 259 259 259 259 269 259 259 269 269 269 269 269 279 269 269 259 269 269 269 269 269 269 269 259 259 259 269 259 259 259 269 269 289 289 289 279 279 269 259 259 259 249 249 249 249 249 249 249 249 249 249 249 239 239 239 239 239 229 219 219 229 240 230 230 220 190 180 180 170 180 180 190 180 190 180 190 190 180 180 180 170 170 170 160 160 170 150 150 150 140 140 130 120 110 100 100 90 80 70 70 61 -9999 -9999 -9999 -9999 -9999 -9999 -9999 -9999 -9999 -9999 -9999 -9999 -9999 -9999 -9999 -9999 -9999 -9999 -9999 -9999 -9999 -9999 -9999 -9999 -9999 -9999 -9999 70 310 900 1119 899 509 109 -9999 -9999 -9999 -9999 -9999 -9999 -9999 -9999 -9999 -9999 -9999 -9999 -9999 -9999 -9999 -9999 -9999 -9999 -9999 -9999 -9999 -9999 -9999 -9999 -9999 -9999 -9999 -9999 -9999 -9999 -9999 -9999 -9999 -9999 -9999 -9999 -9999 -9999 -9999 -9999 -9999 -9999 -9999 -9999 -9999 -9999 -9999 -9999 -9999 -9999 -9999 -9999 -9999 -9999 -9999 -9999 -9999 -9999 -9999 -9999 -9999 -9999 -9999 -9999 -9999 -9999 -9999 -9999 -9999 -9999 -9999 -9999 -9999 -9999 -9999 -9999 -9999 -9999 -9999 -9999 -9999 -9999 -9999 -9999 -9999 -9999 -9999 -9999 -9999 -9999 -9999 -9999 -9999 -9999 -9999 -9999 -9999 -9999 -9999 -9999 -9999 -9999 -9999 -9999 -9999 -9999 -9999 -9999 -9999 -9999 -9999 -9999 -9999 -9999 -9999 -9999 -9999 -9999 -9999 -9999 -9999 -9999 -9999 -9999 -9999 -9999 -9999 -9999 -9999 -9999 -9999 -9999 -9999 -9999 -9999 132 202 391 471 631 761 851 871 881 911 921 961 961 881 731 541 321 131 131 121 120 120 120 110 120 120 140 160 170 210 230 320 390 410 470 530 520 520 519 538 458 458 419 359 309 279 260 250 259 300 309 299 269 219 219 199 189 179 159 169 159 99 -39 -39 -39 -39 -39 -40 -40 -40 -41 -41 -42 -43 -43 -44 -44 -45 -45 -45 -45 982 1752 2102 1562 652 382 542 812 1092 2112 2292 1752 1492 1592 1312 472 -9999 -9999 -9999 -9999 -9999 -9999 -9999 -9999 -9999 -9999 -9999 -9999 -9999 -9999 -9999 -9999 -9999 -9999 -9999 -9999 -9999 -9999 -9999 -9999 -9999
-9999 -9999 -9999 -9999 -9999 -9999 -9999 -9999 -9999 -9999 -9999 -9999 -9999 -9999 -9999 -9999 -9999 -9999 -9999 -9999 -9999 -9999 -9999 -9999 -9999 -9999 -9999 -9999 -9999 -9999 -9999 -9999 -9999 -9999 -9999 -9999 -9999 -9999 -9999 -9999 -9999 -9999 -9999 -9999 -9999 -9999 -9999 -9999 -9999 -9999 -9999 -9999 -9999 -9999 -9999 -9999 -9999 -9999 -9999 -9999 -9999 -9999 95 95 95 95 95 95 106 106 116 126 126 136 146 146 146 147 157 157 157 157 167 177 167 167 168 168 168 168 178 178 178 178 188 188 188 188 188 208 228 288 218 198 198 198 198 199 209 209 209 209 219 219 219 229 229 229 229 239 239 229 229 229 239 239 239 239 249 249 249 249 249 229 249 259 259 269 269 269 269 269 269 269 269 269 279 279 279 269 269 269 269 269 279 279 279 269 269 269 269 269 269 259 269 259 269 289 289 289 289 289 269 259 259 259 249 259 259 249 249 259 249 249 249 249 239 249 239 239 239 219 229 219 240 240 240 230 220 200 180 180 170 170 170 190 190 190 200 190 190 190 180 180 180 170 170 170 170 170 160 150 150 150 140 140 130 120 110 100 100 90 80 71 61 61 -9999 -9999 -9999 -9999 -9999 -9999 -9999 -9999 -9999 -9999 -9999 -9999 -9999 -9999 -9999 -9999 -9999 -9999 -9999 -9999 -9999 -9999 -9999 -9999 -9999 -9999 100 100 420 1160 1019 609 329 219 -9999 -9999 -9999 -9999 -9999 -9999 -9999 -9999 -9999 -9999 -9999 -9999 -9999 -9999 -9999 -9999 -9999 -9999 -9999 -9999 -9999 -9999 -9999 -9999 -9999 -9999 -9999 -9999 -9999 -9999 -9999 -9999 -9999 -9999 -9999 -9999 -9999 -9999 -9999 -9999 -9999 -9999 -9999 -9999 -9999 -9999 -9999 -9999 -9999 -9999 -9999 -9999 -9999 -9999 -9999 -9999 -9999 -9999 -9999 -9999 -9999 -9999 -9999 -9999 -9999 -9999 -9999 -9999 -9999 -9999 -9999 -9999 -9999 -9999 -9999 -9999 -9999 -9999 -9999 -9999 -9999 -9999 -9999 -9999 -9999 -9999 -9999 -9999 -9999 -9999 -9999 -9999 -9999 -9999 -9999 -9999 -9999 -9999 -9999 -9999 -9999 -9999 -9999 -9999 -9999 -9999 -9999 -9999 -9999 -9999 -9999 -9999 -9999 -9999 -9999 -9999 -9999 -9999 -9999 -9999 -9999 -9999 -9999 -9999 -9999 -9999 -9999 -9999 -9999 -9999 -9999 -9999 -9999 112 102 382 511 601 711 781 861 871 921 1011 1001 971 881 661 411 231 121 131 151 141 140 130 110 130 120 110 130 210 360 440 500 580 610 630 670 720 740 750 649 638 578 558 569 549 449 359 299 279 260 249 259 269 269 259 239 219 209 189 179 169 149 159 139 -9999 -39 -40 -40 -40 -40 -41 -41 -42 -42 -43 -43 -44 -45 -45 -45 -45 -45 -46 1112 1802 2192 2112 2112 1582 1352 1702 1212 422 652 -46 -46 1272 1211 1031 -9999 -9999 -9999 -9999 -9999 -9999 -9999 -9999 -9999 -9999 -9999 -9999 -9999 -9999 -9999 -9999 -9999 -9999 -9999 -9999 -9999 -9999 -9999 -9999
-9999 -9999 -9999 -9999 -9999 -9999 -9999 -9999 -9999 -9999 -9999 -9999 -9999 -9999 -9999 -9999 -9999 -9999 -9999 -9999 -9999 -9999 -9999 -9999 -9999 -9999 -9999 -9999 -9999 -9999 -9999 -9999 -9999 -9999 -9999 -9999 -9999 -9999 -9999 -9999 -9999 -9999 -9999 -9999 -9999 -9999 -9999 -9999 -9999 -9999 -9999 -9999 -9999 -9999 -9999 -9999 -9999 -9999 -9999 -9999 -9999 -9999 95 95 95 95 95 96 106 116 116 126 136 136 146 146 147 147 157 157 157 157 167 177 167 168 168 168 168 178 178 178 178 188 188 188 188 198 198 188 208 248 268 218 198 198 209 209 209 209 209 219 219 219 229 239 239 239 229 239 239 239 239 239 239 239 239 249 249 249 249 249 249 249 239 249 259 269 269 269 269 269 269 269 279 269 269 269 269 279 269 269 279 279 279 279 279 269 269 269 269 269 269 269 279 269 269 279 289 289 289 289 289 279 269 259 259 259 259 259 259 259 259 259 249 249 249 239 239 239 239 239 239 230 250 250 240 240 230 230 190 190 180 170 170 190 200 200 200 200 200 190 190 190 190 180 180 180 180 180 170 160 150 150 150 140 140 130 120 110 100 100 91 71 61 51 51 51 -9999 -9999 -9999 -9999 -9999 -9999 -9999 -9999 -9999 -9999 -9999 -9999 -9999 -9999 -9999 -9999 -9999 -9999 -9999 -9999 -9999 -9999 -9999 -9999 -9999 -9999 110 590 939 849 549 319 -9999 -9999 -9999 -9999 -9999 -9999 -9999 -9999 -9999 -9999 -9999 -9999 -9999 -9999 -9999 -9999 -9999 -9999 -9999 -9999 -9999 -9999 -9999 -9999 -9999 -9999 -9999 -9999 -9999 -9999 -9999 -9999 -9999 -9999 -9999 -9999 -9999 -9999 -9999 -9999 -9999 -9999 -9999 -9999 -9999 -9999 -9999 -9999 -9999 -9999 -9999 -9999 -9999 -9999 -9999 -9999 -9999 -9999 -9999 -9999 -9999 -9999 -9999 -9999 -9999 -9999 -9999 -9999 -9999 -9999 -9999 -9999 -9999 -9999 -9999 -9999 -9999 -9999 -9999 -9999 -9999 -9999 -9999 -9999 -9999 -9999 -9999 -9999 -9999 -9999 -9999 -9999 -9999 -9999 -9999 -9999 -9999 -9999 -9999 -9999 -9999 -9999 -9999 -9999 -9999 -9999 -9999 -9999 -9999 -9999 -9999 -9999 -9999 -9999 -9999 -9999 -9999 -9999 -9999 -9999 -9999 -9999 -9999 -9999 -9999 -9999 -9999 -9999 -9999 -9999 -9999 -9999 122 112 342 481 611 711 811 851 861 891 991 1041 981 931 731 431 231 161 141 151 161 170 160 170 160 150 160 230 430 530 610 630 660 670 640 650 620 560 550 550 559 579 628 608 609 619 609 529 439 359 279 239 229 219 229 219 219 209 199 179 179 169 159 129 -9999 -40 -40 -40 -40 -41 -41 -41 -42 -42 -42 -43 -44 -44 -45 -45 -45 -45 -46 -46 -46 1402 1072 1222 1252 1172 902 422 262 282 -9999 -46 -46 -47 1311 1241 -9999 -9999 -9999 -9999 -9999 -9999 -9999 -9999 -9999 -9999 -9999 -9999 -9999 -9999 -9999 -9999 -9999 -9999 -9999 -9999 -9999 -9999 -9999 -9999
-9999 -9999 -9999 -9999 -9999 -9999 -9999 -9999 -9999 -9999 -9999 -9999 -9999 -9999 -9999 -9999 -9999 -9999 -9999 -9999 -9999 -9999 -9999 -9999 -9999 -9999 -9999 -9999 -9999 -9999 -9999 -9999 -9999 -9999 -9999 -9999 -9999 -9999 -9999 -9999 -9999 -9999 -9999 -9999 -9999 -9999 -9999 -9999 -9999 -9999 -9999 -9999 -9999 -9999 -9999 -9999 -9999 -9999 -9999 -9999 -9999 -9999 95 95 95 95 95 106 116 126 126 136 136 136 136 146 147 147 157 157 157 157 167 177 167 168 168 168 168 178 178 178 178 188 188 198 208 208 208 198 198 198 238 238 208 219 219 209 219 219 219 219 229 229 229 249 249 249 239 239 249 249 249 239 239 239 249 239 249 249 249 249 249 259 249 249 259 269 269 259 269 249 259 259 259 269 259 259 269 259 279 279 279 279 279 279 269 279 289 279 279 279 279 289 279 269 279 279 279 279 279 279 269 289 269 269 259 259 259 259 259 259 269 259 249 249 249 249 249 229 239 239 249 250 260 250 250 250 230 230 210 200 190 190 190 200 210 200 200 200 200 200 200 200 190 190 190 180 180 180 170 170 170 170 160 150 140 130 130 110 100 101 91 71 61 51 41 51 -9999 -9999 -9999 -9999 -9999 -9999 -9999 -9999 -9999 -9999 -9999 -9999 -9999 -9999 -9999 -9999 -9999 -9999 -9999 -9999 -9999 -9999 -9999 -9999 -9999 -9999 -9999 140 819 1149 819 289 -9999 -9999 -9999 -9999 -9999 -9999 -9999 -9999 -9999 -9999 -9999 -9999 -9999 -9999 -9999 -9999 -9999 -9999 -9999 -9999 -9999 -9999 -9999 -9999 -9999 -9999 -9999 -9999 -9999 -9999 -9999 -9999 -9999 -9999 -9999 -9999 -9999 -9999 -9999 -9999 -9999 -9999 -9999 -9999 -9999 -9999 -9999 -9999 -9999 -9999 -9999 -9999 -9999 -9999 -9999 -9999 -9999 -9999 -9999 -9999 -9999 -9999 -9999 -9999 -9999 -9999 -9999 -9999 -9999 -9999 -9999 -9999 -9999 -9999 -9999 -9999 -9999 -9999 -9999 -9999 -9999 -9999 -9999 -9999 -9999 -9999 -9999 -9999 -9999 -9999 -9999 -9999 -9999 -9999 -9999 -9999 -9999 -9999 -9999 -9999 -9999 -9999 -9999 -9999 -9999 -9999 -9999 -9999 -9999 -9999 -9999 -9999 -9999 -9999 -9999 -9999 -9999 -9999 -9999 -9999 -9999 -9999 -9999 -9999 -9999 -9999 -9999 -9999 -9999 -9999 -9999 122 122 192 511 601 681 711 841 901 851 921 1081 1021 941 831 511 261 191 181 171 171 181 190 180 210 310 410 500 540 640 670 700 670 650 610 530 430 410 390 310 290 339 369 348 548 569 609 649 649 609 529 429 309 239 209 189 189 189 189 179 178 148 158 178 158 -9999 -40 -40 -41 -41 -41 -41 -42 -42 -42 -43 -43 -44 -44 -45 -45 -45 -45 -46 -46 -46 242 1292 742 572 442 252 172 262 -9999 -46 -46 -47 -47 -47 1721 611 -9999 -9999 -9999 -9999 -9999 -9999 -9999 -9999 -9999 -9999 -9999 -9999 -9999 -9999 -9999 -9999 -9999 -9999 -9999 -9999 -9999 -9999 -9999
-9999 -9999 -9999 -9999 -9999 -9999 -9999 -9999 -9999 -9999 -9999 -9999 -9999 -9999 -9999 -9999 -9999 -9999 -9999 -9999 -9999 -9999 -9999 -9999 -9999 -9999 -9999 -9999 -9999 -9999 -9999 -9999 -9999 -9999 -9999 -9999 -9999 -9999 -9999 -9999 -9999 -9999 -9999 -9999 -9999 -9999 -9999 -9999 -9999 -9999 -9999 -9999 -9999 -9999 -9999 -9999 -9999 -9999 -9999 -9999 -9999 -9999 95 95 95 95 106 116 116 126 126 136 156 156 156 157 157 157 157 157 167 157 157 177 168 168 178 168 178 188 178 188 188 198 198 198 198 208 208 208 208 198 218 278 209 209 219 229 229 229 229 239 239 239 239 229 229 239 259 249 249 239 249 259 249 249 249 249 249 249 249 249 249 249 259 269 259 259 259 259 259 249 269 259 269 269 249 269 259 279 279 289 279 279 279 289 279 279 289 289 289 289 279 279 279 269 279 289 289 269 279 279 279 299 279 269 269 269 269 259 259 269 269 259 249 249 249 239 239 239 239 239 240 250 260 260 250 250 240 240 230 230 210 210 220 230 230 210 210 210 200 200 200 200 190 190 190 190 180 190 190 170 170 170 160 150 140 130 130 120 111 101 101 91 71 61 51 51 51 -9999 -9999 -9999 -9999 -9999 -9999 -9999 -9999 -9999 -9999 -9999 -9999 -9999 -9999 -9999 -9999 -9999 -9999 -9999 -9999 -9999 -9999 -9999 -9999 -9999 -9999 130 390 1169 1129 159 99 -9999 -9999 -9999 -9999 -9999 -9999 -9999 -9999 -9999 -9999 -9999 -9999 -9999 -9999 -9999 -9999 -9999 -9999 -9999 -9999 -9999 -9999 -9999 -9999 -9999 -9999 -9999 -9999 -9999 -9999 -9999 -9999 -9999 -9999 -9999 -9999 -9999 -9999 -9999 -9999 -9999 -9999 -9999 -9999 -9999 -9999 -9999 -9999 -9999 -9999 -9999 -9999 -9999 -9999 -9999 -9999 -9999 -9999 -9999 -9999 -9999 -9999 -9999 -9999 -9999 -9999 -9999 -9999 -9999 -9999 -9999 -9999 -9999 -9999 -9999 -9999 -9999 -9999 -9999 -9999 -9999 -9999 -9999 -9999 -9999 -9999 -9999 -9999 -9999 -9999 -9999 -9999 -9999 -9999 -9999 -9999 -9999 -9999 -9999 -9999 -9999 -9999 -9999 -9999 -9999 -9999 -9999 -9999 -9999 -9999 -9999 -9999 -9999 -9999 -9999 -9999 -9999 -9999 -9999 -9999 -9999 -9999 -9999 -9999 -9999 -9999 -9999 -9999 -9999 122 122 152 362 591 661 691 731 801 911 941 1031 1041 991 851 561 291 251 271 301 311 301 350 380 460 530 570 620 640 670 690 690 640 530 430 340 270 229 159 169 149 130 119 129 108 108 99 329 559 649 659 669 609 479 369 249 199 158 138 148 148 158 148 138 158 178 -9999 -41 -41 -41 -41 -42 -42 -42 -42 -43 -43 -43 -44 -44 -45 -45 -45 -46 -46 -46 -46 212 792 772 572 462 322 -9999 -46 -46 -47 -47 -47 -47 -47 -9999 2251 -9999 -9999 -9999 121 -9999 -9999 -9999 -9999 -9999 -9999 -9999 -9999 -9999 -9999 -9999 -9999 -9999 -9999 -9999 -9999 -9999 -9999 -9999
-9999 -9999 -9999 -9999 -9999 -9999 -9999 -9999 -9999 -9999 -9999 -9999 -9999 -9999 -9999 -9999 -9999 -9999 -9999 -9999 -9999 -9999 -9999 -9999 -9999 -9999 -9999 -9999 -9999 -9999 -9999 -9999 -9999 -9999 -9999 -9999 -9999 -9999 -9999 -9999 -9999 -9999 -9999 -9999 -9999 -9999 -9999 -9999 -9999 -9999 -9999 -9999 -9999 -9999 -9999 -9999 -9999 -9999 -9999 -9999 -9999 -9999 85 85 95 95 116 126 136 136 146 146 156 166 166 167 157 157 167 167 177 167 177 177 178 178 188 188 188 178 178 198 198 198 198 198 208 218 218 208 198 198 218 229 249 229 219 219 229 239 239 239 249 249 239 249 249 239 239 239 249 259 259 259 249 249 249 249 249 259 249 249 259 259 259 259 259 259 269 269 269 279 279 279 279 279 269 279 269 279 279 279 279 279 279 279 279 289 289 279 289 279 279 279 279 279 279 279 289 299 279 279 279 299 279 269 269 279 269 269 259 269 269 239 229 239 229 239 239 239 239 239 250 250 260 260 250 260 240 250 240 240 230 230 230 230 230 220 220 210 210 200 210 200 200 200 200 190 190 190 190 180 170 170 170 150 150 140 130 131 111 101 101 91 81 71 61 51 51 51 -9999 -9999 -9999 -9999 -9999 -9999 -9999 -9999 -9999 -9999 -9999 -9999 -9999 -9999 -9999 -9999 -9999 -9999 -9999 -9999 -9999 -9999 -9999 -9999 -9999 -9999 80 849 1209 839 139 -9999 -9999 -9999 -9999 -9999 -9999 -9999 -9999 -9999 -9999 -9999 -9999 -9999 -9999 -9999 -9999 -9999 -9999 -9999 -9999 -9999 -9999 -9999 -9999 -9999 -9999 -9999 -9999 -9999 -9999 -9999 -9999 -9999 -9999 -9999 -9999 -9999 -9999 -9999 -9999 -9999 -9999 -9999 -9999 -9999 -9999 -9999 -9999 -9999 -9999 -9999 -9999 -9999 -9999 -9999 -9999 -9999 -9999 -9999 -9999 -9999 -9999 -9999 -9999 -9999 -9999 -9999 -9999 -9999 -9999 -9999 -9999 -9999 -9999 -9999 -9999 -9999 -9999 -9999 -9999 -9999 -9999 -9999 -9999 -9999 -9999 -9999 -9999 -9999 -9999 -9999 -9999 -9999 -9999 -9999 -9999 -9999 -9999 -9999 -9999 -9999 -9999 -9999 -9999 -9999 -9999 -9999 -9999 -9999 -9999 -9999 -9999 -9999 -9999 -9999 -9999 -9999 -9999 -9999 -9999 -9999 -9999 -9999 -9999 -9999 -9999 -9999 -9999 -9999 122 162 382 591 631 791 771 791 781 1101 1181 1071 1001 891 591 301 261 321 371 381 411 441 490 510 500 580 580 580 600 650 600 480 390 260 180 140 159 159 129 109 99 99 109 119 109 128 139 99 159 369 539 669 699 669 609 508 328 188 138 118 108 108 107 157 137 177 147 -9999 -42 -42 -42 -42 -43 -43 -43 -43 -43 -44 -44 -45 -45 -45 -45 -46 -46 -46 -46 202 452 712 582 502 452 352 -9999 -47 -47 -47 -47 -47 -47 -47 1101 2171 881 291 -9999 -9999 -9999 -9999 -9999 -9999 -9999 -9999 -9999 -9999 -9999 -9999 -9999 -9999 -9999 -9999 129 -9999 -9999 -9999
-9999 -9999 -9999 -9999 -9999 -9999 -9999 -9999 -9999 -9999 -9999 -9999 -9999 -9999 -9999 -9999 -9999 -9999 -9999 -9999 -9999 -9999 -9999 -9999 -9999 -9999 -9999 -9999 -9999 -9999 -9999 -9999 -9999 -9999 -9999 -9999 -9999 -9999 -9999 -9999 -9999 -9999 -9999 -9999 -9999 -9999 -9999 -9999 -9999 -9999 -9999 -9999 -9999 -9999 -9999 -9999 -9999 -9999 -9999 -9999 -9999 -9999 85 85 95 96 116 126 136 136 136 146 156 166 167 167 177 177 177 167 177 167 177 188 188 188 178 188 188 188 198 198 198 198 198 218 208 218 218 218 218 218 219 229 259 229 239 239 239 239 239 239 249 249 259 259 259 259 259 249 239 249 259 259 249 249 259 259 249 249 269 259 259 259 259 259 259 269 269 269 269 279 279 279 279 279 289 279 279 279 279 279 279 279 299 289 289 289 289 279 289 289 299 289 289 279 289 289 289 289 279 289 279 299 269 279 279 279 269 269 269 269 269 239 229 229 219 219 249 249 249 250 260 270 260 270 260 260 250 250 250 250 240 240 240 240 230 220 220 220 210 210 220 210 200 200 200 200 200 190 190 180 170 180 170 160 150 150 140 131 121 111 101 101 91 71 61 51 51 51 51 -9999 -9999 -9999 -9999 -9999 -9999 -9999 -9999 -9999 -9999 -9999 -9999 -9999 -9999 -9999 -9999 -9999 -9999 -9999 -9999 -9999 -9999 -9999 -9999 -9999 60 469 1229 1049 689 -9999 -9999 -9999 -9999 -9999 -9999 -9999 -9999 -9999 -9999 -9999 -9999 -9999 -9999 -9999 -9999 -9999 -9999 -9999 -9999 -9999 -9999 -9999 -9999 -9999 -9999 -9999 -9999 -9999 -9999 -9999 -9999 -9999 -9999 -9999 -9999 -9999 -9999 -9999 -9999 -9999 -9999 -9999 -9999 -9999 -9999 -9999 -9999 -9999 -9999 -9999 -9999 -9999 -9999 -9999 -9999 -9999 -9999 -9999 -9999 -9999 -9999 -9999 -9999 -9999 -9999 -9999 -9999 -9999 -9999 -9999 -9999 -9999 -9999 -9999 -9999 -9999 -9999 -9999 -9999 -9999 -9999 -9999 -9999 -9999 -9999 -9999 -9999 -9999 -9999 -9999 -9999 -9999 -9999 -9999 -9999 -9999 -9999 -9999 -9999 -9999 -9999 -9999 -9999 -9999 -9999 -9999 -9999 -9999 -9999 -9999 -9999 -9999 -9999 -9999 -9999 -9999 -9999 -9999 -9999 -9999 -9999 -9999 -9999 -9999 -9999 -9999 -9999 112 92 132 361 621 681 791 881 731 851 1111 1191 1141 951 561 321 271 291 291 321 351 361 380 420 470 500 570 540 540 530 480 370 220 140 130 140 169 199 149 139 139 129 129 129 129 139 149 138 99 109 139 229 379 669 729 798 718 518 238 158 147 157 127 77 157 136 156 166 -9999 -42 -43 -43 -43 -43 -43 -43 -44 -44 -44 -45 -45 -45 -45 -46 -46 -46 -46 -46 162 262 592 622 572 522 482 211 131 -47 -47 -47 -47 -47 -47 -47 1911 1811 1211 411 -9999 -9999 -9999 -9999 -9999 -9999 -9999 -9999 -9999 -9999 -9999 -9999 -9999 -9999 -9999 149 159 169 -9999
-9999 -9999 -9999 -9999 -9999 -9999 -9999 -9999 -9999 -9999 -9999 -9999 -9999 -9999 -9999 -9999 -9999 -9999 -9999 -9999 -9999 -9999 -9999 -9999 -9999 -9999 -9999 -9999 -9999 -9999 -9999 -9999 -9999 -9999 -9999 -9999 -9999 -9999 -9999 -9999 -9999 -9999 -9999 -9999 -9999 -9999 -9999 -9999 -9999 -9999 -9999 -9999 -9999 -9999 -9999 -9999 -9999 -9999 -9999 -9999 -9999 -9999 85 85 95 106 116 126 136 146 156 156 156 166 167 167 177 167 177 187 167 167 177 178 168 178 178 198 188 188 198 198 198 208 218 228 228 238 228 228 228 229 239 229 239 239 229 239 239 249 249 249 259 259 259 269 269 269 269 269 259 259 239 249 259 269 259 259 269 269 259 259 259 259 259 259 259 269 269 269 279 279 279 279 279 279 279 279 289 289 279 279 279 279 289 289 279 289 289 279 289 299 289 289 289 279 289 289 289 289 289 289 279 299 289 279 279 279 279 269 269 269 269 249 239 239 229 229 259 259 260 260 270 270 270 270 260 270 260 260 260 250 250 250 250 250 250 240 230 220 220 220 220 210 210 210 210 200 200 190 200 180 180 180 170 160 160 160 151 151 121 121 101 101 101 81 71 51 51 51 51 51 -9999 -9999 -9999 -9999 -9999 -9999 -9999 -9999 -9999 -9999 -9999 -9999 -9999 -9999 -9999 -9999 -9999 -9999 -9999 -9999 -9999 -9999 -9999 -9999 -9999 139 1109 1229 1109 -9999 -9999 -9999 -9999 -9999 -9999 -9999 -9999 -9999 -9999 -9999 -9999 -9999 -9999 -9999 -9999 -9999 -9999 -9999 -9999 -9999 -9999 -9999 -9999 -9999 -9999 -9999 -9999 -9999 -9999 -9999 -9999 -9999 -9999 -9999 -9999 -9999 -9999 -9999 -9999 -9999 -9999 -9999 -9999 -9999 -9999 -9999 -9999 -9999 -9999 -9999 -9999 -9999 -9999 -9999 -9999 -9999 -9999 -9999 -9999 -9999 -9999 -9999 -9999 -9999 -9999 -9999 -9999 -9999 -9999 -9999 -9999 -9999 -9999 -9999 -9999 -9999 -9999 -9999 -9999 -9999 -9999 -9999 -9999 -9999 -9999 -9999 -9999 -9999 -9999 -9999 -9999 -9999 -9999 -9999 -9999 -9999 -9999 -9999 -9999 -9999 -9999 -9999 -9999 -9999 -9999 -9999 -9999 -9999 -9999 -9999 -9999 -9999 -9999 -9999 -9999 -9999 -9999 -9999 -9999 -9999 -9999 -9999 -9999 -9999 -9999 -9999 -9999 142 322 432 601 621 651 731 821 851 1021 1161 1121 951 631 411 331 331 311 311 321 351 371 420 450 480 510 520 500 490 360 180 140 140 160 200 230 229 169 159 169 179 169 169 159 169 159 149 148 119 109 129 169 229 339 508 728 848 848 637 367 267 237 207 186 216 176 516 335 -43 -43 -43 -43 -44 -44 -44 -44 -44 -44 -45 -45 -45 -45 -45 -46 -46 -46 -46 122 142 202 382 572 592 582 591 351 -9999 -47 -47 -47 -47 -47 -47 -47 -47 921 1561 1801 421 200 -9999 -9999 -9999 -9999 -9999 -9999 -9999 -9999 -9999 -9999 -9999 -9999 -9999 159 169 169 69
-9999 -9999 -9999 -9999 -9999 -9999 -9999 -9999 -9999 -9999 -9999 -9999 -9999 -9999 -9999 -9999 -9999 -9999 -9999 -9999 -9999 -9999 -9999 -9999 -9999 -9999 -9999 -9999 -9999 -9999 -9999 -9999 -9999 -9999 -9999 -9999 -9999 -9999 -9999 -9999 -9999 -9999 -9999 -9999 -9999 -9999 -9999 -9999 -9999 -9999 -9999 -9999 -9999 -9999 -9999 -9999 -9999 -9999 -9999 -9999 -9999 -9999 75 75 95 106 126 126 136 146 146 156 156 176 177 177 177 177 177 177 177 177 188 188 188 198 188 188 188 198 198 198 208 218 218 228 228 228 238 238 239 239 239 239 239 239 259 239 239 239 249 259 259 259 259 269 269 269 269 269 279 269 259 259 249 259 279 269 249 259 259 259 259 259 269 259 269 269 259 269 269 279 279 279 279 279 279 279 279 289 289 279 289 279 289 289 289 299 299 289 289 289 289 289 289 289 289 299 299 299 299 289 289 299 289 279 289 279 279 269 269 279 269 259 249 239 239 239 279 269 260 260 270 270 270 270 270 270 270 270 260 250 250 250 250 250 250 240 230 230 220 220 230 220 210 210 210 200 200 200 200 190 190 180 180 170 160 151 151 141 131 121 111 101 101 91 81 61 51 51 51 51 -9999 -9999 -9999 -9999 -9999 -9999 -9999 -9999 -9999 -9999 -9999 -9999 -9999 -9999 -9999 -9999 -9999 -9999 -9999 -9999 -9999 -9999 -9999 -9999 -9999 -9999 549 1199 1099 619 119 -9999 -9999 -9999 -9999 -9999 -9999 -9999 -9999 -9999 -9999 -9999 -9999 -9999 -9999 -9999 -9999 -9999 -9999 -9999 -9999 -9999 -9999 -9999 -9999 -9999 -9999 -9999 -9999 -9999 -9999 -9999 -9999 -9999 -9999 -9999 -9999 -9999 -9999 -9999 -9999 -9999 -9999 -9999 -9999 -9999 -9999 -9999 -9999 -9999 -9999 -9999 -9999 -9999 -9999 -9999 -9999 -9999 -9999 -9999 -9999 -9999 -9999 -9999 -9999 -9999 -9999 -9999 -9999 -9999 -9999 -9999 -9999 -9999 -9999 -9999 -9999 -9999 -9999 -9999 -9999 -9999 -9999 -9999 -9999 -9999 -9999 -9999 -9999 -9999 -9999 -9999 -9999 -9999 -9999 -9999 -9999 -9999 -9999 -9999 -9999 -9999 -9999 -9999 -9999 -9999 -9999 -9999 -9999 -9999 -9999 -9999 -9999 -9999 -9999 -9999 -9999 -9999 -9999 -9999 -9999 -9999 -9999 -9999 -9999 -9999 132 152 422 531 621 661 671 731 781 931 1161 1111 941 711 471 391 321 321 311 331 371 381 420 440 450 470 490 460 410 210 170 170 180 200 260 340 259 199 189 189 179 179 189 179 179 179 169 159 148 139 129 109 89 99 179 318 378 628 827 997 857 497 356 306 286 266 305 405 -9999 -43 -44 -44 -44 -44 -44 -44 -44 -45 -45 -45 -45 -45 -45 -46 -46 -46 -46 -46 112 152 192 272 472 572 591 611 761 411 281 171 -9999 221 191 131 161 521 201 381 -9999 1980 360 -9999 -9999 -9999 -9999 -9999 -9999 -9999 -9999 -9999 -9999 -9999 169 169 169 179 189 209
-9999 -9999 -9999 -9999 -9999 -9999 -9999 -9999 -9999 -9999 -9999 -9999 -9999 -9999 -9999 -9999 -9999 -9999 -9999 -9999 -9999 -9999 -9999 -9999 -9999 -9999 -9999 -9999 -9999 -9999 -9999 -9999 -9999 -9999 -9999 -9999 -9999 -9999 -9999 -9999 -9999 -9999 -9999 -9999 -9999 -9999 -9999 -9999 -9999 -9999 -9999 -9999 -9999 -9999 -9999 -9999 -9999 -9999 -9999 -9999 -9999 -9999 65 75 96 106 126 136 136 146 146 156 166 167 167 177 167 177 177 177 187 187 178 188 178 188 198 188 188 198 208 218 218 218 228 228 238 238 238 238 239 239 239 239 239 249 249 239 249 249 259 249 259 259 259 269 269 279 279 279 279 279 279 279 279 269 249 259 269 259 259 259 259 259 259 269 269 269 269 269 279 279 279 279 279 289 289 289 289 299 299 299 289 289 289 299 289 299 299 289 299 299 289 299 289 289 299 309 299 289 299 299 289 319 289 289 289 289 279 279 279 279 279 269 269 259 249 269 279 270 270 260 270 280 280 280 270 270 270 270 270 250 260 260 250 250 250 240 230 230 220 220 220 220 220 220 220 210 210 210 210 200 190 190 180 170 161 161 151 141 131 121 111 101 101 101 81 71 61 61 61 61 61 -9999 -9999 -9999 -9999 -9999 -9999 -9999 -9999 -9999 -9999 -9999 -9999 -9999 -9999 -9999 -9999 -9999 -9999 -9999 -9999 -9999 -9999 -9999 -9999 -9999 179 899 1169 839 329 139 98 -9999 -9999 -9999 -9999 -9999 -9999 -9999 -9999 -9999 -9999 -9999 -9999 -9999 -9999 -9999 -9999 -9999 -9999 -9999 -9999 -9999 -9999 -9999 -9999 -9999 -9999 -9999 -9999 -9999 -9999 -9999 -9999 -9999 -9999 -9999 -9999 -9999 -9999 -9999 -9999 -9999 -9999 -9999 -9999 -9999 -9999 -9999 -9999 -9999 -9999 -9999 -9999 -9999 -9999 -9999 -9999 -9999 -9999 -9999 -9999 -9999 -9999 -9999 -9999 -9999 -9999 -9999 -9999 -9999 -9999 -9999 -9999 -9999 -9999 -9999 -9999 -9999 -9999 -9999 -9999 -9999 -9999 -9999 -9999 -9999 -9999 -9999 -9999 -9999 -9999 -9999 -9999 -9999 -9999 -9999 -9999 -9999 -9999 -9999 -9999 -9999 -9999 -9999 -9999 -9999 -9999 -9999 -9999 -9999 -9999 -9999 -9999 -9999 -9999 -9999 -9999 -9999 -9999 -9999 -9999 -9999 -9999 142 122 332 491 561 611 711 721 751 801 941 1091 1141 781 541 441 301 321 331 331 371 401 430 430 440 450 450 430 280 150 170 190 240 300 360 330 240 189 189 199 189 179 189 179 179 179 179 169 169 158 159 159 149 129 99 99 118 168 187 277 457 1066 1036 536 446 365 355 375 455 194 -9999 -44 -44 -44 -45 -45 -45 113 -45 -45 -45 -45 -45 -46 -46 -46 -46 -46 -46 152 212 232 282 372 512 631 611 581 491 371 331 411 331 301 211 231 291 201 171 320 1530 1350 -9999 -9999 -9999 -9999 -9999 -9999 160 -9999 -9999 -9999 199 209 229 229 249 259 269
-9999 -9999 -9999 -9999 -9999 -9999 -9999 -9999 -9999 -9999 -9999 -9999 -9999 -9999 -9999 -9999 -9999 -9999 -9999 -9999 -9999 -9999 -9999 -9999 -9999 -9999 -9999 -9999 -9999 -9999 -9999 -9999 -9999 -9999 -9999 -9999 -9999 -9999 -9999 -9999 -9999 -9999 -9999 -9999 -9999 -9999 -9999 -9999 -9999 -9999 -9999 -9999 -9999 -9999 -9999 -9999 -9999 -9999 -9999 -9999 -9999 -9999 75 85 96 116 116 136 136 146 156 156 156 167 167 167 167 177 177 177 177 188 188 188 188 188 198 198 198 208 208 218 218 218 228 238 238 238 238 239 239 239 239 239 239 239 239 249 249 249 259 269 269 269 269 269 269 269 279 269 279 279 289 289 289 279 279 259 259 259 259 259 259 269 259 269 269 279 279 279 279 279 279 279 289 289 289 299 299 299 299 299 289 289 299 299 299 299 299 299 299 299 299 299 299 299 299 299 299 289 289 289 289 309 299 289 289 289 269 279 279 279 279 269 269 269 279 279 279 280 270 270 270 280 280 280 280 280 270 270 270 260 260 260 260 260 260 250 240 240 230 230 230 220 220 220 220 220 210 210 210 200 200 200 180 180 171 171 151 141 131 121 121 101 101 101 91 81 61 61 61 61 61 61 -9999 -9999 -9999 -9999 -9999 -9999 -9999 -9999 -9999 -9999 -9999 -9999 -9999 -9999 -9999 -9999 -9999 -9999 -9999 -9999 -9999 -9999 -9999 -9999 -9999 579 1169 969 589 199 148 118 -9999 -9999 -9999 -9999 -9999 -9999 -9999 -9999 -9999 -9999 -9999 -9999 -9999 -9999 -9999 -9999 -9999 -9999 -9999 -9999 -9999 -9999 -9999 -9999 -9999 -9999 -9999 -9999 -9999 -9999 -9999 -9999 -9999 -9999 -9999 -9999 -9999 -9999 -9999 -9999 -9999 -9999 -9999 -9999 -9999 -9999 -9999 -9999 -9999 -9999 -9999 -9999 -9999 -9999 -9999 -9999 -9999 -9999 -9999 -9999 -9999 -9999 -9999 -9999 -9999 -9999 -9999 -9999 -9999 -9999 -9999 -9999 -9999 -9999 -9999 -9999 -9999 -9999 -9999 -9999 -9999 -9999 -9999 -9999 -9999 -9999 -9999 -9999 -9999 -9999 -9999 -9999 -9999 -9999 -9999 -9999 -9999 -9999 -9999 -9999 -9999 -9999 -9999 -9999 -9999 -9999 -9999 -9999 -9999 -9999 -9999 -9999 -9999 -9999 -9999 -9999 -9999 -9999 -9999 -9999 152 132 302 532 551 631 651 691 731 781 921 1051 1111 991 851 581 481 361 361 361 371 391 411 420 430 430 380 250 220 190 210 250 330 460 360 260 230 220 219 209 209 199 199 199 189 199 189 179 179 169 168 179 179 179 159 159 139 -9999 -9999 -41 -41 -41 -42 -42 1236 825 525 435 424 464 444 334 184 133 -45 -45 -45 -45 -45 -45 -45 -45 -45 -46 -46 -46 152 192 192 472 542 442 492 472 462 511 571 681 701 541 431 391 421 441 401 361 341 331 221 151 -9999 -48 1720 -9999 -9999 -9999 -9999 120 160 170 200 290 359 319 279 269 249 259 269 299
-9999 -9999 -9999 -9999 -9999 -9999 -9999 -9999 -9999 -9999 -9999 -9999 -9999 -9999 -9999 -9999 -9999 -9999 -9999 -9999 -9999 -9999 -9999 -9999 -9999 -9999 -9999 -9999 -9999 -9999 -9999 -9999 -9999 -9999 -9999 -9999 -9999 -9999 -9999 -9999 -9999 -9999 -9999 -9999 -9999 -9999 -9999 -9999 -9999 -9999 -9999 -9999 -9999 -9999 -9999 -9999 -9999 -9999 -9999 -9999 -9999 -9999 85 95 96 116 126 136 136 146 146 156 157 157 157 167 167 177 177 177 177 188 178 188 178 188 188 198 208 208 218 218 218 218 228 238 228 228 239 239 239 239 239 239 239 239 229 259 259 259 259 269 269 279 279 279 279 279 279 279 279 279 289 289 279 289 289 279 279 269 259 259 269 269 269 259 269 279 279 279 279 289 289 289 289 309 309 299 299 299 299 299 299 299 299 299 299 299 299 299 299 299 309 299 299 299 299 309 299 299 299 299 299 309 299 289 279 289 279 279 279 279 279 269 279 279 279 279 270 280 280 270 280 280 280 280 280 280 270 270 270 260 260 260 260 260 260 250 240 230 230 230 220 220 220 220 220 220 210 210 210 210 200 190 190 181 181 171 161 151 141 131 121 111 101 101 91 81 61 61 61 61 61 61 -9999 -9999 -9999 -9999 -9999 -9999 -9999 -9999 -9999 -9999 -9999 -9999 -9999 -9999 -9999 -9999 -9999 -9999 -9999 -9999 -9999 -9999 -9999 -9999 -9999 479 1119 1139 729 269 168 138 128 -9999 -9999 -9999 -9999 -9999 -9999 -9999 -9999 -9999 -9999 -9999 -9999 -9999 -9999 -9999 -9999 -9999 -9999 -9999 -9999 -9999 -9999 -9999 -9999 -9999 -9999 -9999 -9999 -9999 -9999 -9999 -9999 -9999 -9999 -9999 -9999 -9999 -9999 -9999 -9999 -9999 -9999 -9999 -9999 -9999 -9999 -9999 -9999 -9999 -9999 -9999 -9999 -9999 -9999 -9999 -9999 -9999 -9999 -9999 -9999 -9999 -9999 -9999 -9999 -9999 -9999 -9999 -9999 -9999 -9999 -9999 -9999 -9999 -9999 -9999 -9999 -9999 -9999 -9999 -9999 -9999 -9999 -9999 -9999 -9999 -9999 -9999 -9999 -9999 -9999 -9999 -9999 -9999 -9999 -9999 -9999 -9999 -9999 -9999 -9999 -9999 -9999 -9999 -9999 -9999 -9999 -9999 -9999 -9999 -9999 -9999 -9999 -9999 -9999 -9999 -9999 -9999 -9999 142 152 252 482 562 621 661 671 741 881 931 1061 1051 991 861 711 551 441 401 381 351 351 361 410 420 410 350 260 220 280 270 380 440 420 280 240 230 240 240 239 219 219 229 229 219 209 199 189 188 188 188 189 209 179 139 119 -9999 -9999 -40 -40 -41 -41 -42 -42 -42 -43 -43 905 674 554 554 564 603 593 503 483 273 233 123 -45 -45 -45 -46 -46 212 412 662 872 1062 902 912 872 702 672 652 661 671 661 681 731 661 521 421 441 471 461 461 481 481 311 150 -9999 -48 1280 1410 1280 380 180 240 340 350 340 329 309 289 279 259 259 259 269 279
-9999 -9999 -9999 -9999 -9999 -9999 -9999 -9999 -9999 -9999 -9999 -9999 -9999 -9999 -9999 -9999 -9999 -9999 -9999 -9999 -9999 -9999 -9999 -9999 -9999 -9999 -9999 -9999 -9999 -9999 -9999 -9999 -9999 -9999 -9999 -9999 -9999 -9999 -9999 -9999 -9999 -9999 -9999 -9999 -9999 -9999 -9999 -9999 -9999 -9999 -9999 -9999 -9999 -9999 -9999 -9999 -9999 -9999 -9999 -9999 -9999 -9999 75 86 96 116 116 126 136 146 146 156 157 167 167 167 177 177 177 177 187 188 188 188 188 198 188 208 218 218 218 218 218 218 218 218 228 228 229 239 239 239 239 239 239 239 239 249 269 269 259 259 269 269 289 279 289 279 279 279 289 279 289 289 289 289 289 289 289 279 279 269 269 269 269 269 269 279 279 289 279 299 299 309 299 299 299 299 299 299 299 299 299 299 309 309 309 299 309 309 299 299 299 309 309 289 309 299 299 299 299 299 309 319 299 289 289 289 289 289 289 289 289 279 279 289 289 279 290 280 270 270 280 280 280 280 280 280 280 270 270 260 270 260 260 260 260 250 240 230 230 230 230 220 220 220 220 220 220 220 210 210 210 200 191 191 181 181 161 161 141 131 121 111 101 101 91 81 71 71 71 71 71 71 71 -9999 -9999 -9999 -9999 -9999 -9999 -9999 -9999 -9999 -9999 -9999 -9999 -9999 -9999 -9999 -9999 -9999 -9999 -9999 -9999 -9999 -9999 -9999 -9999 249 1009 1209 889 469 198 148 128 -9999 -9999 -9999 -9999 -9999 -9999 -9999 -9999 -9999 -9999 -9999 -9999 -9999 -9999 -9999 -9999 -9999 -9999 -9999 -9999 -9999 -9999 -9999 -9999 -9999 -9999 -9999 -9999 -9999 -9999 -9999 -9999 -9999 -9999 -9999 -9999 -9999 -9999 -9999 -9999 -9999 -9999 -9999 -9999 -9999 -9999 -9999 -9999 -9999 -9999 -9999 -9999 -9999 -9999 -9999 -9999 -9999 -9999 -9999 -9999 -9999 -9999 -9999 -9999 -9999 -9999 -9999 -9999 -9999 -9999 -9999 -9999 -9999 -9999 -9999 -9999 -9999 -9999 -9999 -9999 -9999 -9999 -9999 -9999 -9999 -9999 -9999 -9999 -9999 -9999 -9999 -9999 -9999 -9999 -9999 -9999 -9999 -9999 -9999 -9999 -9999 -9999 -9999 -9999 -9999 -9999 -9999 -9999 -9999 -9999 -9999 -9999 -9999 -9999 -9999 -9999 -9999 142 132 162 462 542 611 651 631 761 821 941 991 1101 1071 871 761 591 481 421 391 331 301 311 330 420 410 340 280 290 410 530 480 480 310 260 250 240 250 260 249 239 249 249 239 239 229 229 219 209 199 189 189 199 209 -9999 -9999 -9999 -9999 -40 -40 -40 -41 -41 -42 -42 -43 -43 -43 -44 1114 854 663 613 623 643 673 723 753 783 713 723 713 862 842 772 902 932 822 792 722 702 672 632 592 592 621 681 741 771 761 761 741 671 651 581 461 501 481 531 601 520 170 -9999 -48 -48 -9999 1340 1500 790 690 460 400 390 319 339 329 329 309 309 309 299 299
-9999 -9999 -9999 -9999 -9999 -9999 -9999 -9999 -9999 -9999 -9999 -9999 -9999 -9999 -9999 -9999 -9999 -9999 -9999 -9999 -9999 -9999 -9999 -9999 -9999 -9999 -9999 -9999 -9999 -9999 -9999 -9999 -9999 -9999 -9999 -9999 -9999 -9999 -9999 -9999 -9999 -9999 -9999 -9999 -9999 -9999 -9999 -9999 -9999 -9999 -9999 -9999 -9999 -9999 -9999 -9999 -9999 -9999 -9999 -9999 -9999 -9999 65 76 96 116 126 136 136 146 156 156 167 177 187 187 187 187 187 187 198 198 198 208 208 208 218 208 218 218 218 218 228 228 238 238 238 239 229 239 229 219 239 239 239 239 239 249 269 269 259 249 259 259 269 279 289 289 289 289 289 279 289 289 289 289 289 289 289 299 289 289 279 269 269 279 279 279 279 299 299 299 299 299 299 299 299 299 309 309 309 309 309 299 309 309 309 309 309 309 309 309 309 309 309 309 309 319 299 309 309 309 319 319 309 289 299 299 289 279 289 289 289 279 279 289 289 290 290 280 280 270 280 290 290 290 280 280 280 280 270 260 270 260 260 260 260 250 240 240 230 230 230 230 220 230 230 220 220 220 220 210 210 200 191 191 181 171 161 161 141 131 131 121 111 101 101 91 91 71 71 71 71 71 71 -9999 -9999 -9999 -9999 -9999 -9999 -9999 -9999 -9999 -9999 -9999 -9999 -9999 -9999 -9999 -9999 -9999 -9999 -9999 -9999 -9999 -9999 -9999 89 169 879 1189 1009 469 238 168 138 -9999 -9999 -9999 -9999 -9999 -9999 -9999 -9999 -9999 -9999 -9999 -9999 -9999 -9999 -9999 -9999 -9999 -9999 -9999 -9999 -9999 -9999 -9999 -9999 -9999 -9999 -9999 -9999 -9999 -9999 -9999 -9999 -9999 -9999 -9999 -9999 -9999 -9999 -9999 -9999 -9999 -9999 -9999 -9999 -9999 -9999 -9999 -9999 -9999 -9999 -9999 -9999 -9999 -9999 -9999 -9999 -9999 -9999 -9999 -9999 -9999 -9999 -9999 -9999 -9999 -9999 -9999 -9999 -9999 -9999 -9999 -9999 -9999 -9999 -9999 -9999 -9999 -9999 -9999 -9999 -9999 -9999 -9999 -9999 -9999 -9999 -9999 -9999 -9999 -9999 -9999 -9999 -9999 -9999 -9999 -9999 -9999 -9999 -9999 -9999 -9999 -9999 -9999 -9999 -9999 -9999 -9999 -9999 -9999 -9999 -9999 -9999 -9999 -9999 -9999 -9999 192 162 182 342 522 592 661 651 751 761 881 981 1041 1051 941 821 681 521 341 291 231 201 181 240 380 440 430 440 500 550 460 370 300 270 260 270 270 270 260 260 249 259 249 259 249 239 219 219 229 229 249 199 189 169 159 -9999 -39 -39 -39 -40 -40 -41 -41 -42 -42 -42 -43 -43 -44 -44 -44 -45 773 793 733 703 733 773 803 813 863 892 922 942 932 892 792 652 592 622 552 582 572 482 482 492 521 531 611 671 751 761 741 721 681 611 521 491 491 541 641 740 600 -9999 -48 -48 -48 300 800 900 1110 870 730 660 589 549 599 479 459 409 389 379 359
-9999 -9999 -9999 -9999 -9999 -9999 -9999 -9999 -9999 -9999 -9999 -9999 -9999 -9999 -9999 -9999 -9999 -9999 -9999 -9999 -9999 -9999 -9999 -9999 -9999 -9999 -9999 -9999 -9999 -9999 -9999 -9999 -9999 -9999 -9999 -9999 -9999 -9999 -9999 -9999 -9999 -9999 -9999 -9999 -9999 -9999 -9999 -9999 -9999 -9999 -9999 -9999 -9999 -9999 -9999 -9999 -9999 -9999 -9999 -9999 -9999 -9999 75 86 96 116 126 136 146 156 156 166 167 167 177 177 187 177 187 187 188 198 198 208 198 198 208 208 218 208 218 218 228 228 238 238 238 239 249 249 239 239 239 239 239 239 239 249 249 269 259 259 259 269 269 269 269 289 289 289 289 289 289 279 289 289 299 289 299 289 299 299 299 289 279 279 289 299 289 289 289 289 289 299 299 299 299 309 309 309 309 309 309 309 309 319 309 309 309 319 309 309 309 309 309 309 299 309 309 309 309 309 319 329 309 299 299 299 289 289 289 299 289 289 289 299 289 290 300 280 280 280 280 290 290 290 280 280 280 280 270 270 270 270 260 260 260 250 240 230 230 230 230 230 230 230 230 220 220 220 220 210 210 201 201 191 181 181 161 161 151 141 131 121 111 101 101 91 81 71 71 71 71 71 71 71 -9999 -9999 -9999 -9999 -9999 -9999 -9999 -9999 -9999 -9999 -9999 -9999 -9999 -9999 -9999 -9999 -9999 -9999 -9999 -9999 80 70 99 229 649 1199 1049 579 288 178 148 -9999 -9999 -9999 -9999 -9999 -9999 -9999 -9999 -9999 -9999 -9999 -9999 -9999 -9999 -9999 -9999 -9999 -9999 -9999 -9999 -9999 -9999 -9999 -9999 -9999 -9999 -9999 -9999 -9999 -9999 -9999 -9999 -9999 -9999 -9999 -9999 -9999 -9999 -9999 -9999 -9999 -9999 -9999 -9999 -9999 -9999 -9999 -9999 -9999 -9999 -9999 -9999 -9999 -9999 -9999 -9999 -9999 -9999 -9999 -9999 -9999 -9999 -9999 -9999 -9999 -9999 -9999 -9999 -9999 -9999 -9999 -9999 -9999 -9999 -9999 -9999 -9999 -9999 -9999 -9999 -9999 -9999 -9999 -9999 -9999 -9999 -9999 -9999 -9999 -9999 -9999 -9999 -9999 -9999 -9999 -9999 -9999 -9999 -9999 -9999 -9999 -9999 -9999 -9999 -9999 -9999 -9999 -9999 -9999 -9999 -9999 -9999 -9999 -9999 -9999 292 302 282 422 532 582 632 661 681 771 851 941 1011 1041 971 821 731 571 391 331 311 261 161 140 420 510 510 550 530 520 460 320 290 270 260 260 260 250 250 250 230 209 209 209 169 139 159 159 149 159 199 239 249 179 149 -9999 -9999 -39 -39 -39 -40 -40 -41 -41 -42 -42 -43 -43 -43 -44 -44 -45 -45 -45 -45 683 753 763 853 893 883 882 862 832 752 692 652 592 572 522 412 372 242 352 402 402 381 431 461 511 551 641 681 701 701 661 641 601 561 501 521 570 680 800 720 590 460 320 250 380 400 560 620 660 629 609 599 559 539 509 459 449 409 389
-9999 -9999 -9999 -9999 -9999 -9999 -9999 -9999 -9999 -9999 -9999 -9999 -9999 -9999 -9999 -9999 -9999 -9999 -9999 -9999 -9999 -9999 -9999 -9999 -9999 -9999 -9999 -9999 -9999 -9999 -9999 -9999 -9999 -9999 -9999 -9999 -9999 -9999 -9999 -9999 -9999 -9999 -9999 -9999 -9999 -9999 -9999 -9999 -9999 -9999 -9999 -9999 -9999 -9999 -9999 -9999 -9999 -9999 -9999 -9999 -9999 -9999 75 96 106 116 136 146 146 156 156 167 177 177 187 187 197 197 187 197 198 198 198 208 208 208 218 228 218 218 218 218 218 228 218 228 229 239 239 239 239 239 239 239 249 249 239 239 249 259 279 269 259 269 269 279 279 269 279 279 289 299 299 299 299 299 299 289 299 299 299 299 309 309 309 299 289 279 279 289 289 289 299 299 309 299 309 309 309 309 319 319 309 309 319 319 319 319 319 319 319 319 319 309 319 309 309 319 319 309 309 309 329 329 309 299 299 299 299 289 289 299 289 289 289 299 290 290 290 290 280 280 290 290 290 290 290 290 280 280 270 270 270 260 260 260 260 250 240 240 230 230 230 230 230 230 230 220 220 220 220 210 211 201 201 191 191 171 171 161 151 141 131 121 111 101 101 91 81 71 71 71 71 71 71 71 -9999 -9999 -9999 -9999 -9999 -9999 -9999 -9999 -9999 -9999 -9999 -9999 -9999 -9999 -9999 -9999 -9999 -9999 -9999 90 80 100 99 369 709 1239 1069 599 308 188 -9999 118 -9999 -9999 -9999 -9999 -9999 -9999 -9999 -9999 -9999 -9999 -9999 -9999 -9999 -9999 -9999 -9999 -9999 -9999 -9999 -9999 -9999 -9999 -9999 -9999 -9999 -9999 -9999 -9999 -9999 -9999 -9999 -9999 -9999 -9999 -9999 -9999 -9999 -9999 -9999 -9999 -9999 -9999 -9999 -9999 -9999 -9999 -9999 -9999 -9999 -9999 -9999 -9999 -9999 -9999 -9999 -9999 -9999 -9999 -9999 -9999 -9999 -9999 -9999 -9999 -9999 -9999 -9999 -9999 -9999 -9999 -9999 -9999 -9999 -9999 -9999 -9999 -9999 -9999 -9999 -9999 -9999 -9999 -9999 -9999 -9999 -9999 -9999 -9999 -9999 -9999 -9999 -9999 -9999 -9999 -9999 -9999 -9999 -9999 -9999 -9999 -9999 -9999 -9999 -9999 -9999 -9999 -9999 -9999 -9999 -9999 -9999 -9999 -9999 302 342 292 442 522 582 642 651 631 741 841 941 1051 1011 991 891 781 621 471 401 311 251 161 130 490 580 610 560 510 470 400 350 310 270 250 220 220 230 220 200 170 160 149 139 129 129 149 149 149 139 149 169 209 289 219 -9999 -9999 -39 -39 -39 -40 -40 -40 -41 -41 -42 -42 -43 -43 -44 -44 -44 -45 -45 -45 123 -45 433 413 593 553 532 532 492 542 582 572 542 502 442 342 262 182 142 202 272 332 361 381 391 481 501 561 631 671 661 661 671 681 641 591 551 550 570 640 660 650 600 490 380 360 380 380 390 390 389 409 419 389 399 389 369 369 349 329
-9999 -9999 -9999 -9999 -9999 -9999 -9999 -9999 -9999 -9999 -9999 -9999 -9999 -9999 -9999 -9999 -9999 -9999 -9999 -9999 -9999 -9999 -9999 -9999 -9999 -9999 -9999 -9999 -9999 -9999 -9999 -9999 -9999 -9999 -9999 -9999 -9999 -9999 -9999 -9999 -9999 -9999 -9999 -9999 -9999 -9999 -9999 -9999 -9999 -9999 -9999 -9999 -9999 -9999 -9999 -9999 -9999 -9999 -9999 -9999 -9999 -9999 86 96 106 126 136 146 156 156 156 167 167 177 177 187 187 187 187 187 198 198 198 198 198 198 208 208 218 218 218 228 228 238 238 248 249 239 239 239 239 239 239 249 249 249 249 249 259 259 279 289 269 279 289 269 279 279 269 269 269 289 299 299 299 299 299 299 299 299 309 309 309 319 309 299 289 289 289 299 289 299 299 299 309 309 309 309 309 309 319 319 309 319 319 329 319 319 319 319 319 319 319 319 319 309 309 319 309 319 319 309 329 329 309 309 309 299 299 299 289 289 289 289 289 299 290 300 290 290 280 280 290 290 290 290 290 290 280 280 270 270 270 270 260 260 250 250 240 240 230 230 230 230 230 230 230 230 230 220 220 210 211 201 201 191 191 181 171 161 151 141 131 121 111 101 101 91 81 71 71 71 71 71 71 71 -9999 -9999 -9999 -9999 -9999 -9999 -9999 -9999 -9999 -9999 -9999 -9999 -9999 -9999 -9999 -9999 100 110 120 100 100 130 259 489 829 1209 989 539 238 148 138 128 -9999 -9999 -9999 -9999 -9999 -9999 -9999 -9999 -9999 -9999 -9999 -9999 -9999 -9999 -9999 -9999 -9999 -9999 -9999 -9999 -9999 -9999 -9999 -9999 -9999 -9999 -9999 -9999 -9999 -9999 -9999 -9999 -9999 -9999 -9999 -9999 -9999 -9999 -9999 -9999 -9999 -9999 -9999 -9999 -9999 -9999 -9999 -9999 -9999 -9999 -9999 -9999 -9999 -9999 -9999 -9999 -9999 -9999 -9999 -9999 -9999 -9999 -9999 -9999 -9999 -9999 -9999 -9999 -9999 -9999 -9999 -9999 -9999 -9999 -9999 -9999 -9999 -9999 -9999 -9999 -9999 -9999 -9999 -9999 -9999 -9999 -9999 -9999 -9999 -9999 -9999 -9999 -9999 -9999 -9999 -9999 -9999 -9999 -9999 -9999 -9999 -9999 -9999 -9999 -9999 -9999 -9999 -9999 -9999 -9999 -9999 -9999 282 272 292 362 522 572 652 692 601 711 791 891 971 1011 1011 931 841 681 521 411 311 211 101 230 520 620 630 570 500 440 380 330 290 260 230 210 220 210 180 170 150 140 140 140 139 129 119 139 149 159 139 139 159 179 189 289 279 259 219 199 189 178 -40 -41 147 156 146 -9999 -43 -43 -44 -44 -45 -45 123 203 393 363 273 253 133 143 173 192 222 222 212 202 172 172 192 212 322 292 112 182 242 251 251 241 271 331 391 461 521 611 581 611 641 651 691 631 581 560 550 560 600 600 590 570 510 450 430 410 380 350 329 319 329 309 309 319 299 299 289 279
-9999 -9999 -9999 -9999 -9999 -9999 -9999 -9999 -9999 -9999 -9999 -9999 -9999 -9999 -9999 -9999 -9999 -9999 -9999 -9999 -9999 -9999 -9999 -9999 -9999 -9999 -9999 -9999 -9999 -9999 -9999 -9999 -9999 -9999 -9999 -9999 -9999 -9999 -9999 -9999 -9999 -9999 -9999 -9999 -9999 -9999 -9999 -9999 -9999 -9999 -9999 -9999 -9999 -9999 -9999 -9999 -9999 -9999 -9999 -9999 -9999 -9999 86 96 116 126 136 146 146 156 166 167 177 177 187 187 187 197 187 187 188 198 198 198 198 218 218 218 218 218 228 228 228 228 228 239 239 239 239 239 249 239 239 239 249 249 249 259 259 269 279 299 289 289 279 279 279 279 279 269 289 279 279 289 299 299 309 309 299 309 309 319 309 319 309 319 319 299 299 299 289 299 299 299 309 309 309 309 309 319 319 319 319 319 319 329 329 329 319 319 319 319 319 319 319 319 309 319 319 309 319 309 309 329 309 309 309 309 299 299 299 299 289 289 289 300 290 290 300 290 280 280 290 290 290 290 290 290 280 280 270 270 270 270 260 260 250 250 240 230 230 230 230 230 230 240 230 230 230 220 230 221 221 211 201 191 201 181 171 161 151 141 131 121 111 101 101 101 91 81 81 71 71 71 71 231 231 -9999 -9999 -9999 -9999 -9999 -9999 -9999 -9999 -9999 -9999 -9999 -9999 -9999 -9999 -9999 130 130 130 -9999 100 170 249 469 1029 1259 929 479 168 158 178 168 138 -9999 -9999 -9999 -9999 -9999 -9999 -9999 -9999 -9999 -9999 -9999 -9999 -9999 -9999 -9999 -9999 -9999 -9999 -9999 -9999 -9999 -9999 -9999 -9999 -9999 -9999 -9999 -9999 -9999 -9999 -9999 -9999 -9999 -9999 -9999 -9999 -9999 -9999 -9999 -9999 90 90 90 -9999 -9999 -9999 -9999 -9999 -9999 -9999 -9999 -9999 -9999 -9999 -9999 -9999 -9999 -9999 -9999 -9999 -9999 -9999 -9999 -9999 -9999 -9999 -9999 -9999 -9999 -9999 -9999 -9999 -9999 -9999 -9999 -9999 -9999 -9999 -9999 -9999 -9999 -9999 -9999 -9999 -9999 -9999 -9999 -9999 -9999 -9999 -9999 -9999 -9999 -9999 -9999 -9999 -9999 -9999 -9999 -9999 -9999 -9999 -9999 -9999 -9999 -9999 -9999 -9999 -9999 -9999 292 272 252 292 502 562 622 722 712 821 851 881 921 1011 1001 901 871 761 571 431 311 241 261 441 550 620 590 550 460 400 350 280 250 240 210 190 190 190 180 160 150 140 120 120 130 139 129 139 139 149 149 159 149 159 169 179 189 219 209 209 189 188 198 197 207 167 156 166 185 145 -44 -44 -44 -45 143 233 313 283 283 223 183 153 173 173 152 162 152 142 142 132 132 132 122 132 192 232 202 172 181 181 191 171 151 191 341 431 311 451 561 601 601 581 621 620 610 570 560 580 590 590 610 600 520 500 450 420 369 349 339 329 309 299 289 289 289 279 269
-9999 -9999 -9999 -9999 -9999 -9999 -9999 -9999 -9999 -9999 -9999 -9999 -9999 -9999 -9999 -9999 -9999 -9999 -9999 -9999 -9999 -9999 -9999 -9999 -9999 -9999 -9999 -9999 -9999 -9999 -9999 -9999 -9999 -9999 -9999 -9999 -9999 -9999 -9999 -9999 -9999 -9999 -9999 -9999 -9999 -9999 -9999 -9999 -9999 -9999 -9999 -9999 -9999 -9999 -9999 -9999 -9999 -9999 -9999 -9999 -9999 -9999 86 96 116 126 136 146 156 166 156 157 167 167 177 167 177 177 177 177 188 198 188 198 208 218 218 228 228 228 238 238 238 238 238 239 249 239 239 239 239 249 249 259 249 249 249 249 249 259 279 319 309 289 289 289 289 279 289 279 279 279 279 289 299 299 309 309 309 319 309 309 309 309 319 319 319 319 309 299 299 309 309 309 309 319 309 319 319 319 319 319 319 319 329 329 329 329 329 319 329 329 329 319 319 319 319 319 319 309 319 319 309 329 329 309 309 309 299 299 309 299 299 299 299 290 300 300 300 290 280 280 290 290 290 290 290 290 280 280 270 270 270 260 260 260 260 250 240 230 230 230 230 230 230 230 230 230 230 220 230 221 221 211 211 201 191 191 181 171 161 141 131 121 111 101 101 101 91 81 81 81 81 71 231 221 241 -9999 -9999 -9999 -9999 -9999 -9999 -9999 -9999 -9999 -9999 -9999 -9999 -9999 -9999 -9999 140 130 140 -9999 210 240 379 719 1229 1299 769 279 318 288 288 258 248 238 -9999 -9999 -9999 -9999 -9999 -9999 -9999 -9999 -9999 -9999 -9999 -9999 -9999 -9999 -9999 -9999 -9999 -9999 -9999 -9999 -9999 -9999 -9999 -9999 -9999 -9999 -9999 -9999 -9999 -9999 -9999 -9999 -9999 -9999 -9999 -9999 -9999 -9999 -9999 90 90 90 90 -9999 -9999 -9999 -9999 -9999 -9999 -9999 -9999 -9999 -9999 -9999 -9999 -9999 -9999 -9999 -9999 -9999 -9999 -9999 -9999 -9999 -9999 -9999 -9999 -9999 -9999 -9999 -9999 -9999 -9999 -9999 -9999 -9999 -9999 -9999 -9999 -9999 -9999 -9999 -9999 -9999 -9999 -9999 -9999 -9999 -9999 -9999 -9999 -9999 -9999 -9999 -9999 -9999 -9999 -9999 -9999 -9999 -9999 -9999 -9999 -9999 -9999 -9999 -9999 -9999 -9999 292 292 272 482 552 632 642 652 722 901 1021 1041 1021 1031 971 901 791 611 441 301 351 461 551 630 600 550 510 420 350 300 250 230 210 190 190 180 170 160 160 150 140 110 100 100 110 99 79 109 119 149 189 199 189 219 239 199 229 219 229 229 198 188 168 167 157 156 146 145 155 154 164 164 93 223 333 303 283 283 223 223 193 203 203 183 162 162 152 152 152 152 142 142 142 122 152 162 172 171 161 141 151 141 141 101 101 191 111 231 361 511 581 601 571 570 600 600 600 590 580 580 620 630 610 600 540 490 429 369 339 329 319 319 309 289 279 269 269
-9999 -9999 -9999 -9999 -9999 -9999 -9999 -9999 -9999 -9999 -9999 -9999 -9999 -9999 -9999 -9999 -9999 -9999 -9999 -9999 -9999 -9999 -9999 -9999 -9999 -9999 -9999 -9999 -9999 -9999 -9999 -9999 -9999 -9999 -9999 -9999 -9999 -9999 -9999 -9999 -9999 -9999 -9999 -9999 -9999 -9999 -9999 -9999 -9999 -9999 -9999 -9999 -9999 -9999 -9999 -9999 -9999 -9999 -9999 -9999 -9999 -9999 86 96 116 126 136 136 146 156 156 167 177 187 187 187 197 197 197 198 198 208 208 208 218 218 218 218 218 218 228 238 238 248 248 249 249 239 249 239 259 249 239 239 249 249 259 259 249 259 269 309 319 299 299 289 289 279 289 289 289 289 289 289 289 289 299 309 319 319 319 309 309 309 319 319 329 329 329 329 309 309 309 309 309 319 309 319 319 319 329 329 329 329 329 329 329 329 329 329 329 329 329 319 319 319 319 319 329 329 319 319 319 329 329 319 309 309 309 299 299 299 299 289 290 290 290 300 290 290 280 280 290 290 290 290 290 290 280 280 270 270 270 260 260 260 260 250 240 240 240 230 230 230 230 230 230 230 230 230 231 221 221 211 211 201 201 191 181 171 151 151 131 121 111 101 101 101 91 81 81 71 71 201 231 231 241 -9999 -9999 -9999 -9999 -9999 -9999 -9999 -9999 -9999 -9999 -9999 -9999 -9999 -9999 180 200 160 190 320 520 540 889 1079 1239 1209 659 509 468 478 458 388 368 328 358 177 -9999 -9999 -9999 -9999 -9999 -9999 -9999 -9999 -9999 -9999 -9999 -9999 -9999 -9999 -9999 -9999 -9999 -9999 -9999 -9999 -9999 -9999 -9999 -9999 -9999 -9999 -9999 -9999 -9999 -9999 -9999 -9999 -9999 -9999 -9999 -9999 -9999 90 90 90 90 90 80 90 -9999 -9999 -9999 -9999 -9999 -9999 -9999 -9999 -9999 -9999 -9999 -9999 -9999 -9999 -9999 -9999 -9999 -9999 -9999 -9999 -9999 -9999 -9999 -9999 -9999 -9999 -9999 -9999 -9999 -9999 -9999 -9999 -9999 -9999 -9999 -9999 -9999 -9999 -9999 -9999 -9999 -9999 -9999 -9999 -9999 -9999 -9999 -9999 -9999 -9999 -9999 -9999 -9999 -9999 -9999 -9999 -9999 -9999 -9999 -9999 -9999 -9999 222 272 242 432 532 592 662 572 662 792 971 1041 1061 1061 1021 941 821 651 511 421 461 521 561 570 570 520 420 350 320 270 220 200 200 190 170 170 160 130 140 150 130 110 90 90 90 110 99 99 159 199 269 349 379 429 499 569 539 519 559 629 548 468 378 327 257 206 186 155 145 134 144 114 103 353 483 303 303 243 213 223 203 183 163 143 123 142 152 152 162 162 162 162 162 152 132 122 132 132 131 141 161 161 151 151 111 91 81 81 81 101 221 381 541 560 570 550 570 590 590 590 580 590 600 630 640 620 570 509 439 379 329 309 299 309 299 299 279 269
-9999 -9999 -9999 -9999 -9999 -9999 -9999 -9999 -9999 -9999 -9999 -9999 -9999 -9999 -9999 -9999 -9999 -9999 -9999 -9999 -9999 -9999 -9999 -9999 -9999 -9999 -9999 -9999 -9999 -9999 -9999 -9999 -9999 -9999 -9999 -9999 -9999 -9999 -9999 -9999 -9999 -9999 -9999 -9999 -9999 -9999 -9999 -9999 -9999 -9999 -9999 -9999 -9999 -9999 -9999 -9999 -9999 -9999 -9999 -9999 -9999 -9999 96 96 116 126 146 156 166 166 167 177 177 177 177 187 197 197 197 198 208 208 208 218 218 208 218 218 218 228 228 228 228 228 248 249 239 249 259 259 249 249 249 259 249 249 239 249 249 269 269 309 329 299 299 299 299 299 289 289 299 289 289 289 289 279 309 299 309 319 319 319 319 319 319 329 329 329 339 339 329 319 309 319 319 319 319 319 319 329 329 329 329 329 339 339 339 329 329 329 329 329 329 329 319 329 319 329 329 339 319 319 319 329 339 329 329 319 309 309 299 299 299 299 290 290 290 290 300 290 280 280 290 290 290 290 280 280 280 280 280 270 270 260 260 260 260 260 250 240 240 240 240 240 240 240 230 240 230 231 231 221 221 221 211 211 201 191 181 171 161 141 131 121 111 101 101 101 91 71 71 71 151 251 231 241 241 -9999 -9999 -9999 -9999 -9999 -9999 -9999 -9999 -9999 -9999 -9999 -9999 280 420 560 650 780 750 930 1080 1190 1359 1439 1489 1219 939 839 758 618 598 618 578 498 408 327 237 147 -9999 -9999 -9999 -9999 -9999 -9999 -9999 -9999 -9999 -9999 -9999 -9999 -9999 -9999 -9999 -9999 -9999 -9999 -9999 -9999 -9999 103 113 -9999 -9999 -9999 -9999 -9999 -9999 -9999 -9999 -9999 -9999 -9999 -9999 90 90 90 100 100 90 100 90 -9999 -9999 -9999 -9999 -9999 -9999 -9999 -9999 -9999 -9999 -9999 -9999 -9999 -9999 -9999 -9999 -9999 -9999 -9999 -9999 -9999 -9999 -9999 -9999 -9999 -9999 -9999 -9999 -9999 -9999 -9999 -9999 -9999 -9999 -9999 -9999 -9999 -9999 -9999 -9999 -9999 -9999 -9999 -9999 -9999 -9999 -9999 -9999 -9999 -9999 -9999 -9999 -9999 -9999 -9999 -9999 -9999 -9999 -9999 -9999 143 172 282 402 522 572 652 622 612 732 942 1071 1071 1061 1041 991 881 751 571 461 511 591 571 541 490 440 380 300 240 210 200 190 170 170 160 140 130 120 120 120 130 120 90 80 100 110 130 139 159 319 339 759 729 849 939 1119 1079 1209 1209 1119 1068 968 1148 1067 857 806 576 565 485 345 164 164 273 333 363 313 333 253 213 243 243 223 173 143 133 132 142 152 152 152 162 162 162 162 152 142 132 122 111 111 111 121 131 121 121 101 91 91 91 81 71 71 71 90 230 520 540 530 530 570 590 600 620 620 650 660 680 679 639 579 479 389 319 289 279 279 279 279 269
-9999 -9999 -9999 -9999 -9999 -9999 -9999 -9999 -9999 -9999 -9999 -9999 -9999 -9999 -9999 -9999 -9999 -9999 -9999 -9999 -9999 -9999 -9999 -9999 -9999 -9999 -9999 -9999 -9999 -9999 -9999 -9999 -9999 -9999 -9999 -9999 -9999 -9999 -9999 -9999 -9999 -9999 -9999 -9999 -9999 -9999 -9999 -9999 -9999 -9999 -9999 -9999 -9999 -9999 -9999 -9999 -9999 -9999 -9999 -9999 -9999 85 106 116 126 146 146 156 166 166 167 167 177 177 187 187 197 197 197 198 198 208 218 208 208 208 208 208 208 218 218 228 238 228 239 239 249 249 249 249 249 249 249 249 249 259 249 259 259 259 269 319 319 299 289 289 299 299 299 299 309 329 299 299 309 299 299 299 299 299 319 319 329 329 329 329 329 329 339 339 339 339 339 319 319 319 329 329 329 329 329 329 339 339 339 339 339 329 329 339 329 329 329 329 329 319 319 319 339 329 329 319 309 329 339 309 319 309 319 309 299 299 299 290 290 290 290 300 300 290 290 280 290 290 290 290 290 280 280 280 270 270 270 270 260 260 260 260 250 240 240 240 240 240 240 240 240 240 240 241 231 231 231 231 221 221 211 201 191 171 161 141 131 111 101 101 101 101 81 71 71 121 271 261 241 241 241 -9999 -9999 -9999 -9999 -9999 -9999 531 641 671 691 711 761 780 940 1080 1120 1260 1380 1350 1520 1540 1669 1629 1479 1339 1299 1309 1148 948 798 718 718 728 808 657 327 227 167 -9999 -9999 -9999 -9999 -9999 -9999 -9999 -9999 -9999 -9999 -9999 -9999 -9999 -9999 -9999 -9999 -9999 -9999 -9999 133 133 133 -9999 -9999 -9999 -9999 -9999 -9999 -9999 -9999 -9999 -9999 -9999 90 90 100 100 100 110 110 80 90 -9999 -9999 -9999 -9999 -9999 -9999 -9999 -9999 -9999 -9999 -9999 -9999 -9999 -9999 -9999 -9999 -9999 -9999 -9999 -9999 -9999 -9999 -9999 -9999 -9999 -9999 -9999 -9999 -9999 -9999 -9999 -9999 -9999 -9999 -9999 -9999 -9999 -9999 -9999 -9999 -9999 -9999 -9999 -9999 -9999 -9999 -9999 -9999 -9999 -9999 -9999 -9999 -9999 -9999 -9999 -9999 -9999 -9999 -9999 -9999 133 142 262 482 562 632 832 582 682 812 1002 1081 1101 1051 991 901 801 611 541 571 571 541 481 470 380 300 240 200 180 170 150 150 140 120 130 130 110 110 100 100 110 80 80 100 130 210 360 649 929 1179 1429 1449 1509 1439 1319 1139 1179 1129 1129 1098 1108 1168 1157 1247 1246 1246 1256 1215 1175 1184 1164 1173 1023 983 723 693 643 623 493 443 413 413 363 302 302 262 252 192 182 142 132 132 132 132 152 162 152 141 121 101 101 101 111 111 111 101 91 91 81 81 71 71 60 50 140 190 550 500 510 530 550 590 600 610 660 690 709 719 719 679 589 519 449 339 279 259 259 259 268
-9999 -9999 -9999 -9999 -9999 -9999 -9999 -9999 -9999 -9999 -9999 -9999 -9999 -9999 -9999 -9999 -9999 -9999 -9999 -9999 -9999 -9999 -9999 -9999 -9999 -9999 -9999 -9999 -9999 -9999 -9999 -9999 -9999 -9999 -9999 -9999 -9999 -9999 -9999 -9999 -9999 -9999 -9999 -9999 -9999 -9999 -9999 -9999 -9999 -9999 -9999 -9999 -9999 -9999 -9999 -9999 -9999 -9999 -9999 -9999 -9999 85 106 116 136 146 146 156 166 166 167 167 177 177 177 187 197 197 197 208 208 208 218 208 208 208 208 208 218 218 218 228 228 228 229 239 239 249 249 259 249 259 259 249 249 249 259 259 259 269 279 309 329 299 299 289 289 299 299 309 319 319 319 319 299 299 299 299 299 299 299 309 329 329 329 329 329 329 339 339 339 339 339 339 329 329 319 329 329 329 339 339 339 339 339 339 339 329 339 339 329 329 329 329 329 319 319 329 329 329 319 319 319 339 339 319 319 319 309 309 299 299 299 290 290 300 290 300 290 290 280 280 280 290 290 290 290 290 280 280 270 270 270 270 270 260 260 270 250 240 250 250 250 250 250 250 250 240 241 251 241 241 231 241 241 231 221 211 191 171 151 131 121 111 101 101 101 131 181 101 111 281 281 271 241 241 261 -9999 401 481 621 651 661 691 661 741 801 861 951 1080 1190 1280 1420 1610 1750 1800 1760 1790 1789 1659 1539 1529 1499 1419 1458 1418 1358 1318 1318 1238 1148 1317 1307 487 607 797 306 -9999 -9999 -9999 -9999 -9999 -9999 -9999 -9999 -9999 -9999 944 934 1104 764 524 -9999 133 153 143 133 132 -9999 -9999 -9999 -9999 -9999 -9999 -9999 -9999 -9999 -9999 90 100 110 110 120 120 120 100 90 -9999 -9999 -9999 -9999 -9999 -9999 -9999 -9999 -9999 -9999 -9999 -9999 -9999 -9999 -9999 -9999 -9999 -9999 -9999 -9999 -9999 -9999 -9999 -9999 -9999 -9999 -9999 -9999 -9999 -9999 -9999 -9999 -9999 -9999 -9999 -9999 -9999 -9999 -9999 -9999 -9999 -9999 -9999 -9999 -9999 -9999 -9999 -9999 -9999 -9999 -9999 -9999 -9999 -9999 -9999 -9999 -9999 -9999 123 133 153 172 442 542 602 692 722 692 812 992 1062 1131 1081 1021 931 791 671 581 551 531 501 441 351 300 240 200 170 160 130 120 130 120 120 130 110 120 110 100 100 90 80 90 120 200 560 1100 1070 1169 1229 1299 1219 1079 879 749 779 709 689 689 718 748 778 837 877 947 976 1016 1125 1175 1214 1214 1243 1233 1183 1063 943 853 783 803 793 813 772 722 722 712 722 662 662 662 642 432 282 202 182 152 142 132 131 131 141 141 101 91 91 91 101 111 91 71 71 71 61 60 50 50 100 140 230 390 440 480 510 560 590 610 670 669 709 739 759 749 719 649 589 519 339 259 229 209 228
-9999 -9999 -9999 -9999 -9999 -9999 -9999 -9999 -9999 -9999 -9999 -9999 -9999 -9999 -9999 -9999 -9999 -9999 -9999 -9999 -9999 -9999 -9999 -9999 -9999 -9999 -9999 -9999 -9999 -9999 -9999 -9999 -9999 -9999 -9999 -9999 -9999 -9999 -9999 -9999 -9999 -9999 -9999 -9999 -9999 -9999 -9999 -9999 -9999 -9999 -9999 -9999 -9999 -9999 -9999 -9999 -9999 -9999 -9999 -9999 75 95 106 126 136 146 146 156 156 156 167 167 167 177 187 187 187 197 207 208 208 208 208 208 208 208 218 218 218 228 228 228 228 228 239 239 239 239 239 249 249 259 259 259 249 259 269 259 259 259 279 309 319 289 299 299 309 299 299 299 309 319 319 319 319 309 299 319 309 299 299 309 319 329 339 339 339 339 339 339 339 339 339 349 349 339 329 329 339 329 339 339 339 349 349 349 339 339 339 339 339 339 329 329 329 319 329 329 329 319 329 319 319 329 329 319 319 299 309 309 309 309 299 300 290 290 290 290 290 290 280 280 280 290 290 290 290 290 280 280 270 280 270 270 270 270 260 270 260 250 250 260 270 260 260 260 260 261 251 251 251 241 241 241 251 241 241 221 201 171 151 131 121 111 101 101 221 331 301 271 281 221 -9999 -9999 351 491 661 711 741 761 791 641 691 541 561 551 881 891 1061 1220 1530 1750 1840 2000 1960 1860 1850 1770 1609 1579 1569 1539 1539 1589 1598 1688 1728 1758 1768 1718 1758 1927 1917 1967 1397 2517 1946 1876 1526 986 636 925 715 1785 2095 1935 1785 1774 1754 1724 1634 1634 1384 813 373 203 153 142 132 -9999 -9999 -9999 -9999 -9999 -9999 -9999 -9999 -9999 100 110 120 130 130 130 140 130 120 109 -9999 -9999 -9999 -9999 -9999 -9999 -9999 -9999 -9999 -9999 -9999 -9999 -9999 -9999 -9999 -9999 -9999 -9999 -9999 -9999 -9999 -9999 -9999 -9999 -9999 -9999 -9999 -9999 -9999 -9999 -9999 -9999 -9999 -9999 -9999 -9999 -9999 -9999 -9999 -9999 -9999 -9999 -9999 -9999 -9999 -9999 -9999 -9999 -9999 -9999 -9999 -9999 -9999 -9999 -9999 -9999 -9999 143 153 122 412 542 602 652 652 652 802 972 1152 1122 1101 1041 981 821 751 641 561 501 461 391 311 231 180 120 120 120 120 110 110 110 110 120 110 110 110 110 100 90 80 90 140 290 950 1370 1370 1260 1229 1099 889 659 549 499 469 529 549 569 598 618 628 677 727 757 786 836 865 915 974 1024 1074 1113 1153 1153 1143 1053 933 922 902 852 832 802 772 752 762 742 722 862 862 942 952 882 762 592 352 281 221 181 141 131 141 161 121 81 71 71 71 91 111 101 80 130 110 100 100 100 240 120 390 440 510 510 550 590 600 639 649 679 729 779 789 799 769 729 669 559 449 289 218 178
-9999 -9999 -9999 -9999 -9999 -9999 -9999 -9999 -9999 -9999 -9999 -9999 -9999 -9999 -9999 -9999 -9999 -9999 -9999 -9999 -9999 -9999 -9999 -9999 -9999 -9999 -9999 -9999 -9999 -9999 -9999 -9999 -9999 -9999 -9999 -9999 -9999 -9999 -9999 -9999 -9999 -9999 -9999 -9999 -9999 -9999 -9999 -9999 -9999 -9999 -9999 -9999 -9999 -9999 -9999 -9999 -9999 -9999 -9999 -9999 95 95 116 136 136 146 146 146 156 156 167 177 177 177 187 187 187 197 197 208 208 218 208 208 218 218 218 218 228 228 238 238 238 238 239 249 249 249 249 239 249 249 249 249 249 259 259 269 259 269 279 309 319 309 299 299 309 309 319 309 309 309 319 329 329 319 319 329 319 319 309 319 319 319 329 339 349 339 339 329 349 349 349 359 359 349 339 339 339 339 339 339 339 349 349 349 339 339 339 349 339 339 339 339 329 329 319 339 339 319 329 319 319 339 329 319 329 309 309 319 309 309 290 300 300 290 290 300 290 290 280 280 280 290 290 290 290 280 280 280 280 270 270 270 280 270 270 270 260 240 250 270 280 270 280 280 270 271 271 261 271 271 271 271 271 261 261 241 201 171 151 141 151 151 221 271 301 -9999 371 431 491 571 641 671 751 811 871 891 951 891 791 771 721 621 611 881 1001 1331 1681 1820 2000 2080 2170 2110 1840 1650 1570 1590 1539 1509 1509 1479 1579 1609 1618 1638 1878 2138 2098 2128 2207 2417 2387 2497 2537 2317 2366 2546 2756 2606 2506 2655 2825 2475 2145 2005 1975 1854 1824 1824 1844 1914 1964 1973 1413 1023 573 192 162 122 122 -9999 -9999 -9999 -9999 -9999 -9999 -9999 100 120 130 130 130 130 150 150 140 129 119 -9999 -9999 -9999 -9999 -9999 -9999 -9999 -9999 -9999 -9999 -9999 -9999 -9999 -9999 -9999 -9999 -9999 -9999 -9999 -9999 -9999 -9999 -9999 -9999 -9999 -9999 -9999 -9999 -9999 -9999 -9999 -9999 -9999 -9999 -9999 -9999 -9999 -9999 -9999 -9999 -9999 -9999 -9999 -9999 -9999 -9999 -9999 -9999 -9999 -9999 -9999 -9999 -9999 -9999 -9999 83 113 143 262 512 582 642 662 632 752 932 1082 1122 1102 1051 1001 841 751 621 541 491 411 331 241 221 171 140 130 130 120 120 120 120 120 120 110 100 100 90 90 110 100 110 320 980 1470 1620 1380 1220 1070 849 599 459 409 409 459 499 519 529 569 618 638 637 667 687 726 756 775 805 854 894 924 983 983 1023 1063 1143 1143 1202 1182 1132 1152 952 902 932 942 912 862 832 822 942 952 952 952 1022 1031 981 881 671 521 361 241 131 81 81 81 111 81 91 321 361 380 460 560 600 560 680 600 630 840 720 700 700 700 640 690 689 679 699 709 729 749 779 819 839 819 809 749 659 529 388 298
-9999 -9999 -9999 -9999 -9999 -9999 -9999 -9999 -9999 -9999 -9999 -9999 -9999 -9999 -9999 -9999 -9999 -9999 -9999 -9999 -9999 -9999 -9999 -9999 -9999 -9999 -9999 -9999 -9999 -9999 -9999 -9999 -9999 -9999 -9999 -9999 -9999 -9999 -9999 -9999 -9999 -9999 -9999 -9999 -9999 -9999 -9999 -9999 -9999 -9999 -9999 -9999 -9999 -9999 -9999 -9999 -9999 -9999 -9999 75 85 95 106 126 136 146 146 156 166 166 167 167 177 177 187 187 197 197 207 208 218 218 208 218 208 218 218 228 228 228 238 238 238 238 249 249 249 249 249 249 249 249 249 249 249 249 259 259 269 269 289 309 319 309 309 319 309 309 319 309 319 309 319 319 329 329 329 329 329 329 319 319 319 319 329 329 349 339 339 349 349 359 359 359 359 359 349 339 339 339 339 349 349 349 349 349 349 349 339 339 329 339 339 329 329 329 319 319 329 339 329 319 319 339 339 329 309 309 309 309 299 299 300 290 260 290 300 290 290 290 280 280 290 290 290 290 290 280 290 290 280 280 270 280 280 280 270 250 280 260 260 290 290 290 290 300 291 291 291 301 311 321 321 321 321 331 411 421 361 -9999 361 -9999 391 411 441 501 521 541 601 631 691 751 811 881 941 981 971 1001 1021 1001 951 1061 991 1121 1121 1361 1511 1821 2051 2161 2230 2320 2290 1840 1560 1540 1510 1560 1459 1459 1499 1489 1589 1649 1639 1688 1858 2058 2228 2298 2367 2407 2467 2507 2597 2597 2826 2906 2886 2826 2646 2855 2895 2305 1825 1795 1785 1824 1804 1804 1804 1914 1964 1993 2103 2153 1863 1112 562 182 142 -9999 -9999 -9999 -9999 -9999 -9999 -9999 110 130 130 130 140 150 160 160 150 149 139 119 -9999 -9999 -9999 -9999 -9999 -9999 -9999 -9999 -9999 -9999 -9999 -9999 -9999 -9999 -9999 -9999 -9999 -9999 -9999 -9999 -9999 -9999 -9999 -9999 -9999 -9999 -9999 -9999 -9999 -9999 -9999 -9999 -9999 -9999 -9999 -9999 -9999 -9999 -9999 -9999 -9999 -9999 -9999 -9999 -9999 -9999 -9999 -9999 -9999 -9999 -9999 -9999 -9999 83 83 93 103 432 562 632 672 672 752 872 992 1102 1112 1062 1001 871 801 651 511 371 301 291 261 221 151 120 130 120 110 120 120 120 120 120 120 120 120 150 190 260 290 570 1080 1370 1460 1480 1340 1130 800 460 409 409 439 489 519 559 589 629 589 628 638 668 677 727 746 746 785 775 824 854 884 943 953 983 1013 1063 1083 1102 1102 1142 1192 1242 1232 1252 1232 1282 1262 1282 1332 1252 1172 1192 1182 1092 1131 1181 1191 1151 1121 1121 1041 871 521 341 291 281 241 291 271 731 950 930 970 980 990 1010 1080 1050 1050 980 940 890 820 830 840 889 839 819 789 809 799 799 789 809 869 889 869 859 839 739 618 438
-9999 -9999 -9999 -9999 -9999 -9999 -9999 -9999 -9999 -9999 -9999 -9999 -9999 -9999 -9999 -9999 -9999 -9999 -9999 -9999 -9999 -9999 -9999 -9999 -9999 -9999 -9999 -9999 -9999 -9999 -9999 -9999 -9999 -9999 -9999 -9999 -9999 -9999 -9999 -9999 -9999 -9999 -9999 -9999 -9999 -9999 -9999 -9999 -9999 -9999 -9999 -9999 -9999 -9999 -9999 -9999 -9999 -9999 -9999 85 95 105 116 126 156 136 146 156 166 166 167 167 177 177 187 187 187 207 207 208 208 218 218 218 218 218 228 228 228 228 238 238 248 248 249 259 259 259 259 249 259 259 259 259 249 259 259 259 259 259 289 309 329 309 309 319 309 309 309 309 309 329 319 309 329 329 329 329 329 329 319 319 339 329 329 319 329 349 359 359 359 359 359 359 359 369 369 359 349 349 359 349 349 349 349 359 349 349 339 349 339 339 339 339 339 329 319 329 329 329 329 319 329 319 339 319 309 309 309 309 299 300 300 300 290 290 290 290 300 290 280 280 290 290 290 290 290 290 290 290 290 290 290 290 290 290 300 270 290 280 280 310 320 330 330 341 331 341 351 381 381 401 411 421 471 521 731 641 601 611 581 531 541 551 581 611 661 721 771 821 901 941 971 1031 1141 1181 1321 1301 1411 1351 1451 1531 1431 1551 1771 1941 2031 2171 2201 2201 2170 2110 1710 1570 1540 1520 1540 1510 1469 1449 1489 1479 1539 1589 1649 1738 1808 1938 2058 2178 2307 2397 2467 2517 2697 2837 2946 3176 3446 3376 2906 2565 2305 1995 1695 1775 1765 1804 1824 1834 1834 1944 1974 2063 2083 2193 2253 2322 2252 1242 212 -9999 -9999 -9999 -9999 -9999 -9999 -9999 110 160 150 150 160 160 160 160 160 159 159 159 89 79 -9999 -9999 -9999 -9999 -9999 -9999 -9999 -9999 -9999 -9999 -9999 -9999 -9999 -9999 -9999 -9999 -9999 -9999 -9999 -9999 -9999 -9999 -9999 -9999 -9999 -9999 -9999 -9999 -9999 -9999 -9999 -9999 -9999 -9999 -9999 -9999 -9999 -9999 -9999 -9999 -9999 -9999 -9999 -9999 -9999 -9999 -9999 -9999 -9999 -9999 -9999 83 63 83 433 572 612 672 672 762 852 952 1042 1152 1062 1012 901 791 661 471 371 341 291 261 181 141 121 120 110 110 110 110 110 120 130 140 340 230 390 400 670 1000 1040 1340 1650 1640 1670 1230 860 500 470 480 489 569 559 619 649 689 719 729 698 748 788 807 807 766 786 845 795 824 834 864 863 923 1003 1033 1083 1103 1123 1122 1102 1082 1092 1112 1132 1202 1292 1352 1382 1412 1452 1502 1412 1332 1242 1201 1141 1211 1241 1161 1181 1241 1241 1211 1221 1181 1121 1151 1121 1081 1201 1240 1230 1220 1230 1220 1210 1240 1270 1250 1220 1250 1240 1240 1180 1180 1160 1019 959 1009 999 969 899 899 879 859 859 899 929 919 929 929 878 788
-9999 -9999 -9999 -9999 -9999 -9999 -9999 -9999 -9999 -9999 -9999 -9999 -9999 -9999 -9999 -9999 -9999 -9999 -9999 -9999 -9999 -9999 -9999 -9999 -9999 -9999 -9999 -9999 -9999 -9999 -9999 -9999 -9999 -9999 -9999 -9999 -9999 -9999 -9999 -9999 -9999 -9999 -9999 -9999 -9999 -9999 -9999 -9999 -9999 -9999 -9999 -9999 -9999 -9999 -9999 -9999 -9999 -9999 -9999 85 95 105 116 126 136 146 146 156 156 166 167 177 177 187 187 197 197 207 217 218 218 218 228 218 218 228 228 238 238 238 238 238 248 248 249 259 259 259 259 259 259 259 259 259 259 269 269 259 259 259 279 309 319 309 309 299 319 309 319 319 319 319 319 329 329 329 329 329 339 339 339 329 339 329 339 329 339 339 359 369 369 359 359 359 359 359 359 369 359 359 359 359 349 349 359 349 349 349 349 349 339 339 329 339 329 329 319 329 329 329 319 319 319 329 329 319 309 309 309 309 299 300 300 300 300 290 290 290 300 290 290 280 290 290 290 300 300 300 300 300 300 300 310 300 300 320 320 300 320 320 330 370 380 390 401 421 431 461 471 501 541 541 581 621 671 771 821 811 761 771 761 751 741 751 771 811 841 911 961 1011 1081 1171 1231 1301 1371 1431 1491 1521 1601 1691 1701 1781 1771 1981 2101 2281 2221 2151 2051 1951 1600 1540 1490 1440 1410 1410 1430 1480 1519 1499 1469 1459 1499 1549 1599 1678 1738 1808 1828 1908 1987 2167 2267 2117 2247 2277 2596 2646 2646 3066 2776 1975 1835 1815 1865 1865 1915 1844 1824 1864 1954 1874 2014 2053 2183 2173 2283 2372 2542 2652 1692 391 -9999 -9999 -9999 -9999 -9999 -9999 870 620 430 270 200 180 170 170 160 169 169 169 159 139 119 -9999 -9999 -9999 -9999 -9999 -9999 -9999 -9999 -9999 -9999 -9999 -9999 -9999 -9999 -9999 -9999 -9999 -9999 -9999 -9999 -9999 -9999 -9999 -9999 -9999 -9999 -9999 -9999 -9999 -9999 -9999 -9999 -9999 -9999 -9999 -9999 -9999 -9999 -9999 -9999 -9999 -9999 -9999 -9999 -9999 -9999 -9999 -9999 -9999 83 83 83 283 533 612 662 672 712 862 912 1042 1082 1082 1022 932 791 671 521 441 401 281 181 131 121 121 121 110 110 100 100 100 110 150 220 330 520 590 750 900 970 1150 1390 1350 1440 1440 960 590 440 500 540 549 619 659 709 699 699 699 739 778 858 798 917 947 1136 1146 875 845 764 764 784 833 883 893 953 1033 1123 1133 1142 1142 1162 1142 1142 1192 1292 1302 1362 1422 1422 1502 1402 1312 1422 1292 1292 1281 1211 1191 1231 1231 1231 1251 1261 1231 1301 1361 1351 1351 1271 1291 1191 1201 1210 1200 1160 1160 1170 1160 1130 1100 1070 1060 1060 1030 1090 1190 1250 1259 1249 1289 1219 1169 1129 1139 1079 1049 979 989 959 969 969 989 998 988
-9999 -9999 -9999 -9999 -9999 -9999 -9999 -9999 -9999 -9999 -9999 -9999 -9999 -9999 -9999 -9999 -9999 -9999 -9999 -9999 -9999 -9999 -9999 -9999 -9999 -9999 -9999 -9999 -9999 -9999 -9999 -9999 -9999 -9999 -9999 -9999 -9999 -9999 -9999 -9999 -9999 -9999 -9999 -9999 -9999 -9999 -9999 -9999 -9999 -9999 -9999 -9999 -9999 -9999 -9999 -9999 -9999 -9999 -9999 85 95 115 116 126 136 136 146 156 156 166 157 177 187 197 197 197 207 207 207 218 228 218 218 228 228 228 228 238 238 238 238 248 248 258 259 269 269 259 259 269 259 269 259 259 269 269 269 269 269 269 279 309 339 309 309 299 309 329 329 329 319 319 329 319 329 329 319 329 349 339 349 339 329 339 339 339 339 349 349 359 369 369 359 369 369 369 369 369 379 369 359 359 359 359 359 359 349 349 349 349 339 349 339 339 329 319 329 329 329 329 339 329 329 339 339 319 319 309 309 309 309 300 300 300 290 290 290 290 300 300 290 280 280 300 300 300 310 310 310 310 320 320 330 330 330 340 390 360 380 400 420 460 470 491 511 541 541 551 581 601 621 651 691 731 791 861 891 791 821 831 871 881 871 901 941 981 1031 1101 1161 1291 1321 1381 1431 1481 1511 1541 1631 1681 1691 1721 1721 1831 1951 2021 2151 2121 1971 1831 1651 1511 1440 1400 1350 1360 1360 1370 1420 1460 1489 1539 1569 1589 1579 1579 1569 1588 1618 1658 1678 1718 1787 1877 1977 1827 1917 2037 2466 3516 3286 2786 1966 1665 1715 1785 1845 1885 1875 1804 1804 1784 1834 1814 1894 1943 2023 2133 2273 2412 2632 2922 2802 2481 1591 1191 701 351 -9999 1560 2840 2430 1570 520 530 360 250 200 180 169 169 179 179 159 149 129 -9999 -9999 -9999 -9999 -9999 -9999 -9999 -9999 -9999 -9999 -9999 -9999 -9999 -9999 -9999 -9999 -9999 -9999 -9999 -9999 -9999 -9999 -9999 -9999 -9999 -9999 -9999 -9999 -9999 -9999 -9999 -9999 -9999 -9999 -9999 -9999 -9999 -9999 -9999 -9999 -9999 -9999 -9999 -9999 -9999 -9999 -9999 73 73 83 133 483 593 652 712 712 822 922 1002 1142 1102 1032 932 772 681 571 501 381 241 151 131 111 111 121 111 110 110 100 90 130 240 400 570 680 720 800 910 970 1070 1190 1180 1240 1080 590 450 520 530 570 580 639 669 689 669 689 709 689 718 718 718 687 787 756 366 455 485 804 694 684 713 753 833 893 943 943 1023 1023 1052 992 1032 1142 1162 1262 1192 1142 792 942 1212 1262 1262 1282 1282 1232 1272 1292 1312 1271 1201 1241 1261 1301 1281 1271 1281 1331 1381 1361 1291 1231 1141 1141 1151 1130 1110 1090 1060 1030 1010 970 880 900 930 950 960 950 1020 1010 1089 1089 1209 1239 1249 1229 1249 1239 1259 1279 1189 1089 1049 1059 1068 1088
-9999 -9999 -9999 -9999 -9999 -9999 -9999 -9999 -9999 -9999 -9999 -9999 -9999 -9999 -9999 -9999 -9999 -9999 -9999 -9999 -9999 -9999 -9999 -9999 -9999 -9999 -9999 -9999 -9999 -9999 -9999 -9999 -9999 -9999 -9999 -9999 -9999 -9999 -9999 -9999 -9999 -9999 -9999 -9999 -9999 -9999 -9999 -9999 -9999 -9999 -9999 -9999 -9999 -9999 -9999 -9999 -9999 -9999 55 85 95 105 116 126 136 146 156 156 166 166 167 177 187 187 187 197 207 207 217 218 218 218 218 228 228 228 238 238 248 238 248 248 258 258 259 259 269 269 269 269 269 269 269 269 269 269 269 269 269 269 289 309 349 319 309 299 309 309 329 329 329 329 339 339 319 329 349 339 339 339 339 349 349 339 339 349 349 349 349 349 359 369 369 369 369 369 369 369 379 369 369 359 359 359 359 359 359 349 349 349 339 339 339 339 339 339 329 329 329 339 329 319 319 339 339 319 319 309 309 309 300 300 300 300 300 300 290 290 300 300 290 290 290 300 300 310 320 320 330 340 350 370 390 400 420 430 430 460 500 500 510 540 561 571 591 601 611 621 651 671 711 751 781 821 841 841 831 871 911 951 971 991 1041 1061 1101 1171 1241 1311 1381 1411 1431 1461 1481 1511 1551 1611 1701 1731 1781 1781 1811 1941 2011 1951 1891 1681 1571 1471 1371 1321 1290 1300 1300 1290 1310 1340 1370 1400 1429 1439 1489 1589 1589 1569 1549 1508 1508 1548 1578 1588 1617 1697 1427 1387 1427 1457 1576 1646 1546 1446 1536 1615 1695 1745 1835 2005 2165 2134 1994 1844 1754 1774 1824 1893 1953 2023 2173 2292 2662 2802 3092 3241 3121 3021 3151 3241 2301 3900 3560 3090 2510 2140 1630 1180 690 480 309 199 179 179 179 179 179 139 -9999 -9999 -9999 -9999 -9999 -9999 -9999 -9999 -9999 -9999 -9999 -9999 -9999 -9999 -9999 -9999 -9999 -9999 -9999 -9999 -9999 -9999 -9999 -9999 -9999 -9999 -9999 -9999 -9999 -9999 -9999 -9999 -9999 -9999 -9999 -9999 -9999 -9999 -9999 -9999 -9999 -9999 -9999 -9999 -9999 -9999 -9999 73 83 83 453 583 633 682 742 852 922 992 1062 1112 1032 982 822 712 621 571 401 221 141 121 111 101 111 101 101 110 110 90 160 420 620 730 750 820 870 900 970 1040 1140 1250 1190 910 470 550 610 590 650 690 710 739 729 699 699 669 649 628 618 578 487 347 116 136 86 105 -43 -9999 294 653 763 843 873 863 883 833 783 683 513 382 682 -9999 -9999 -9999 -9999 -9999 -9999 -9999 -9999 -9999 -9999 -9999 -9999 -9999 -9999 972 972 1182 1242 1192 1221 1261 1261 1251 1231 1271 1321 1311 1291 1431 1371 1261 1111 1011 991 931 840 880 880 870 830 850 880 880 870 880 880 880 920 940 979 1039 1089 1109 1159 1189 1209 1229 1279 1249 1219 1189 1159 1158
-9999 -9999 -9999 -9999 -9999 -9999 -9999 -9999 -9999 -9999 -9999 -9999 -9999 -9999 -9999 -9999 -9999 -9999 -9999 -9999 -9999 -9999 -9999 -9999 -9999 -9999 -9999 -9999 -9999 -9999 -9999 -9999 -9999 -9999 -9999 -9999 -9999 -9999 -9999 -9999 -9999 -9999 -9999 -9999 -9999 -9999 -9999 -9999 -9999 -9999 -9999 -9999 -9999 -9999 -9999 -9999 -9999 -9999 75 95 95 115 116 126 136 146 156 156 166 166 177 177 187 187 197 197 207 217 217 218 218 228 228 228 228 228 238 238 238 248 248 248 258 258 259 269 269 269 269 269 269 269 279 269 269 269 269 279 279 279 289 319 339 319 309 309 319 319 309 319 329 329 329 339 339 329 339 339 339 339 339 339 359 359 349 359 359 349 359 359 349 369 379 379 369 369 369 379 369 369 369 359 369 359 359 359 359 349 349 349 349 339 329 339 339 329 329 329 329 329 329 329 329 339 339 319 309 309 309 309 300 300 300 300 290 300 290 290 300 300 300 300 300 320 320 330 340 380 410 430 430 470 480 510 500 510 520 530 550 540 570 601 611 631 651 671 691 701 741 751 771 791 821 851 861 891 931 961 981 1031 1041 1151 1171 1231 1231 1281 1321 1361 1381 1421 1431 1461 1491 1511 1581 1661 1711 1731 1761 1811 1831 1811 1701 1571 1461 1411 1331 1291 1251 1251 1201 1210 1160 1200 1180 1190 1210 1200 1199 1229 1249 1379 1529 1629 1759 1598 1478 1438 1388 1398 1387 1347 967 957 1047 1047 946 1066 1196 1176 1266 1315 1385 1525 1635 1855 2084 2424 2634 2394 2084 1894 1824 1893 1923 1993 2083 2242 2402 2612 2832 2971 3091 3131 3571 3941 1831 3700 3460 3240 3220 2980 2670 2350 1750 1150 759 439 239 199 179 189 249 179 -9999 -9999 -9999 -9999 -9999 -9999 -9999 -9999 -9999 -9999 -9999 -9999 -9999 -9999 -9999 -9999 -9999 -9999 -9999 -9999 -9999 -9999 -9999 -9999 -9999 -9999 -9999 -9999 -9999 -9999 -9999 -9999 -9999 -9999 -9999 -9999 -9999 -9999 -9999 -9999 -9999 -9999 -9999 -9999 -9999 -9999 83 83 83 413 533 623 673 702 822 892 992 1042 1052 1052 992 862 712 662 611 421 211 131 121 101 91 101 101 101 111 150 230 510 700 730 810 840 810 810 750 870 980 1190 1280 1070 650 500 580 620 620 660 730 730 760 719 669 619 529 379 449 398 208 177 167 177 186 146 85 75 -44 -44 853 793 823 763 773 563 493 243 143 -9999 -9999 -9999 -9999 -9999 -9999 -9999 -9999 -9999 -9999 -9999 -9999 -9999 -9999 -9999 -9999 -9999 -9999 -9999 -9999 462 582 622 912 1142 1202 1231 1231 1311 1311 1441 1451 1361 1471 1481 1251 1051 951 811 801 821 810 830 810 780 820 850 850 880 880 890 910 930 950 970 959 1009 1079 1159 1209 1249 1239 1299 1239 1179 1219 1229
-9999 -9999 -9999 -9999 -9999 -9999 -9999 -9999 -9999 -9999 -9999 -9999 -9999 -9999 -9999 -9999 -9999 -9999 -9999 -9999 -9999 -9999 -9999 -9999 -9999 -9999 -9999 -9999 -9999 -9999 -9999 -9999 -9999 -9999 -9999 -9999 -9999 -9999 -9999 -9999 -9999 -9999 -9999 -9999 -9999 -9999 -9999 -9999 -9999 -9999 -9999 -9999 -9999 -9999 -9999 -9999 -9999 75 95 95 95 105 116 126 146 156 156 156 156 166 167 177 177 187 197 207 207 207 207 218 218 218 228 228 228 238 228 238 238 238 248 248 258 258 269 269 269 269 269 269 269 269 279 279 279 279 279 279 279 279 289 319 349 319 319 319 319 319 319 319 319 319 319 329 329 349 339 329 329 349 339 349 359 369 369 369 359 359 359 359 359 379 379 389 379 369 369 379 379 369 379 369 359 359 359 359 359 349 349 349 349 339 339 339 339 329 319 339 339 329 329 329 329 339 339 319 319 309 309 310 300 300 300 300 300 300 300 300 310 310 310 320 330 350 370 370 410 450 470 500 520 520 530 540 550 560 560 580 600 600 611 661 671 681 711 721 741 751 771 791 821 841 871 921 951 991 1031 1031 1101 1141 1181 1201 1181 1251 1271 1301 1341 1351 1381 1401 1431 1451 1491 1521 1621 1681 1721 1711 1741 1741 1661 1531 1411 1361 1311 1291 1241 1221 1221 1171 1111 1020 1040 1030 1010 1010 990 970 970 1019 959 909 999 1229 1679 628 1308 1198 1058 1238 1087 217 317 237 237 226 346 206 146 576 -9999 -9999 -9999 -9999 -9999 -9999 -9999 -9999 1524 1944 2524 2014 1934 1923 1943 1973 2003 2092 2252 2412 2692 2921 3111 3381 3781 3871 3791 3500 2840 2550 2820 2990 2950 2890 2500 2160 1529 909 609 329 209 189 229 279 199 -9999 -9999 -9999 -9999 -9999 -9999 -9999 -9999 -9999 -9999 -9999 -9999 -9999 -9999 -9999 -9999 -9999 -9999 -9999 -9999 -9999 -9999 -9999 -9999 -9999 -9999 -9999 -9999 -9999 -9999 -9999 -9999 -9999 -9999 -9999 -9999 -9999 -9999 -9999 -9999 -9999 -9999 -9999 -9999 -9999 83 83 183 533 613 653 673 772 902 962 1062 1082 1082 1012 862 742 682 652 441 231 111 121 101 81 81 91 131 221 360 560 680 800 810 820 820 780 820 860 880 950 1190 1240 1040 510 570 690 640 620 630 640 650 620 560 469 269 189 119 129 89 128 148 137 167 196 126 135 365 144 -44 964 863 853 943 433 203 223 103 103 -9999 -9999 -9999 -9999 -9999 -9999 -9999 -9999 -9999 -9999 -9999 -9999 -9999 -9999 -9999 -9999 -9999 -9999 -9999 -9999 -9999 342 -9999 -9999 -9999 -9999 -9999 -9999 -9999 -9999 1041 1261 1281 851 1231 1291 1241 1061 941 751 611 571 581 641 661 690 660 660 790 750 760 820 840 860 890 920 950 939 989 1019 1029 1089 1159 1259 1299 1299 1309 1279
