ncols         486
nrows         40
xllcorner     542312.989566
yllcorner     4205839.89064
cellsize      50
cellvalue     0.01
NODATA_value  -9999
-9999 -9999 -9999 -9999 -9999 -9999 -9999 -9999 -9999 -9999 -9999 -9999 -186 -187 -9999 -9999 -9999 -9999 -9999 -9999 -9999 -9999 -186 -185 -186 -189 -190 -187 -180 -175 -172 -167 -162 -160 -165 -169 -37 -164 -135 -106 -83 -67 -53 -43 -34 -25 -18 -9 -6 -3 13 18 14 9 30 10 5 4 4 3 7 8 9 11 13 17 19 24 29 32 35 38 42 45 49 56 60 64 66 69 73 77 81 85 89 93 97 102 105 108 112 117 119 121 123 119 115 125 132 136 139 142 147 153 161 168 175 182 186 187 190 193 213 224 225 227 234 244 256 270 259 254 253 257 263 275 293 283 271 264 266 262 260 265 270 270 274 281 284 294 305 307 305 307 311 306 301 300 308 325 344 355 375 449 488 492 522 520 522 515 495 472 451 445 450 456 463 473 482 489 501 512 527 552 539 529 528 532 535 545 552 556 563 584 600 631 662 692 727 756 787 817 844 868 894 921 945 961 1022 1028 1022 1073 1126 1126 1127 1142 1157 1164 1138 1210 1205 1208 1231 1259 1274 1286 1300 1312 1321 1326 1334 1336 1342 1343 1342 1332 1310 1280 1246 1209 1164 1108 1006 994 1031 1060 998 1028 1030 1008 979 952 906 860 825 779 729 684 641 586 558 549 559 563 564 558 551 545 543 531 525 524 511 502 488 477 460 444 441 447 407 375 369 359 335 325 314 304 297 299 299 289 280 276 272 261 252 251 251 242 233 230 232 229 224 205 190 187 190 188 194 189 184 183 185 182 181 179 179 180 174 171 169 172 179 190 183 177 173 174 173 175 174 171 163 164 162 162 163 171 178 171 166 171 179 171 164 163 163 163 163 166 167 172 177 171 166 164 162 163 164 165 162 157 154 154 155 152 150 151 153 146 150 144 144 140 131 122 122 118 110 97 95 93 93 87 93 78 81 81 77 72 70 58 40 20 9 10 14 7 -1 -12 -25 -36 -46 -51 -56 -65 -100 -144 -9999 -9999 -9999 -9999 -9999 -9999 -9999 -9999 -9999 -9999 -9999 -9999 -9999 -9999 -9999 -9999 -9999 -9999 -9999 -9999 -9999 -9999 -9999 -9999 -9999 -9999 -9999 -9999 -9999 -9999 -9999 -9999 -9999 -9999 -9999 -9999 -9999 -9999 -9999 -9999 -9999 -9999 -9999 -9999 -9999 -9999 -9999 -9999 -9999 -9999 -9999 -9999 -9999 -9999 -9999 -9999 -9999 -9999 -9999 -9999 -9999 -9999 -9999 -9999 -9999 -9999 -9999 -9999 -9999 -9999 -9999 -9999 -9999 -9999 -9999 -9999 -9999 -9999 -9999 -9999 -9999 -9999 -9999 -9999 -9999 -9999
-9999 -9999 -9999 -9999 -9999 -9999 -9999 -9999 -9999 -9999 -9999 -9999 -9999 -187 -187 -9999 -9999 -9999 -9999 -9999 -9999 -9999 -187 -185 -186 -191 -194 -192 -183 -184 -190 -192 -193 -194 -190 -185 -164 -26 -42 -50 -49 -44 -37 -30 -24 -15 -7 8 12 10 39 40 30 10 41 12 6 4 2 1 3 6 9 10 12 15 18 23 27 31 34 39 44 48 54 59 64 68 69 70 75 79 81 86 91 96 100 103 106 108 112 117 119 123 124 118 103 123 134 139 142 144 150 153 154 159 171 182 187 190 198 210 224 230 230 233 240 249 258 270 259 258 258 263 267 277 297 288 277 270 268 265 263 265 268 270 277 284 288 296 314 315 309 311 318 313 306 307 317 333 359 370 403 486 506 504 521 525 525 518 499 477 460 454 457 464 471 479 488 499 512 523 539 554 545 538 540 544 547 552 556 568 588 612 634 659 690 722 754 779 812 846 874 895 921 951 984 993 1022 1026 1056 1082 1096 1082 1121 1147 1173 1200 1196 1212 1236 1246 1255 1284 1309 1311 1319 1329 1336 1339 1339 1342 1343 1334 1323 1315 1278 1243 1208 1167 1110 1016 976 1026 1003 1025 1003 1011 997 970 927 904 864 802 755 709 671 633 614 573 551 543 546 546 545 539 530 524 522 517 504 501 495 478 455 430 421 411 402 397 375 351 339 323 301 292 285 280 277 279 278 266 260 254 249 240 234 231 230 223 217 212 216 211 208 191 189 184 184 183 187 183 179 176 175 174 174 170 170 174 165 163 161 162 165 174 172 166 160 163 166 170 172 168 162 158 153 152 154 163 170 165 160 167 177 168 161 160 161 161 161 162 162 164 164 163 161 158 154 157 160 159 156 153 151 151 151 148 146 148 149 141 144 138 138 135 126 114 116 105 105 91 90 86 85 83 91 76 70 70 68 65 58 41 10 10 -4 -7 -11 -16 -22 -31 -44 -58 -71 -78 -84 -90 -131 -9999 -9999 -9999 -9999 -9999 -9999 -9999 -9999 -9999 -9999 -9999 -9999 -9999 -9999 -9999 -9999 -9999 -9999 -9999 -9999 -9999 -9999 -9999 -9999 -9999 -9999 -9999 -9999 -9999 -9999 -9999 -9999 -9999 -9999 -9999 -9999 -9999 -9999 -9999 -9999 -9999 -9999 -9999 -9999 -9999 -9999 -9999 -9999 -9999 -9999 -9999 -9999 -9999 -9999 -9999 -9999 -9999 -9999 -9999 -9999 -9999 -9999 -9999 -9999 -9999 -9999 -9999 -9999 -9999 -9999 -9999 -9999 -9999 -9999 -9999 -9999 -9999 -9999 -9999 -9999 -9999 -9999 -9999 -9999 -9999 -9999 -9999
-9999 -9999 -9999 -9999 -9999 -9999 -9999 -9999 -9999 -9999 -9999 -9999 -9999 -186 -187 -9999 -9999 -9999 -9999 -9999 -9999 -9999 -187 -183 -182 -192 -200 -199 -184 -193 -199 -200 -200 -199 -173 -149 -117 -29 -16 -20 -24 -23 -20 -13 -9 5 10 37 50 77 72 67 63 59 44 31 15 4 1 3 3 4 6 9 12 14 18 23 26 31 35 40 46 51 53 53 60 65 67 69 74 76 78 83 88 93 96 100 103 107 112 116 120 124 127 124 118 126 135 141 144 147 148 149 151 156 167 180 186 189 192 193 217 231 235 237 242 253 265 271 262 260 259 263 268 281 298 295 284 275 269 266 263 262 266 271 279 286 287 292 303 311 317 318 324 314 311 315 321 332 351 381 457 493 512 506 525 528 528 524 504 481 465 461 464 473 479 486 494 510 524 531 547 557 547 545 554 559 557 563 575 585 612 640 663 681 717 747 777 793 831 872 905 923 952 978 1007 1004 1015 1010 1052 1092 1100 1126 1152 1173 1208 1213 1220 1235 1249 1264 1278 1298 1309 1318 1328 1335 1341 1337 1335 1342 1336 1319 1299 1260 1229 1198 1162 1121 1075 965 1001 1053 1048 964 1001 983 958 930 895 864 820 748 686 633 611 566 548 550 543 537 531 527 526 519 506 497 496 496 481 468 465 441 417 375 383 379 367 357 342 322 306 291 276 267 264 260 261 257 253 234 232 226 224 217 217 212 213 204 197 191 197 190 190 184 183 178 174 171 170 172 172 167 160 160 159 158 159 166 166 159 155 151 151 160 166 161 156 157 160 162 163 161 157 154 147 144 148 158 166 162 154 157 159 157 153 155 158 159 160 158 157 158 157 158 157 154 152 154 156 156 154 151 148 147 145 144 143 145 146 137 138 131 129 128 121 108 109 98 100 85 83 78 76 80 89 72 62 62 60 58 48 28 20 1 -15 -24 -38 -38 -41 -48 -63 -83 -100 -114 -136 -176 -9999 -9999 -9999 -9999 -9999 -9999 -9999 -9999 -9999 -9999 -9999 -9999 -9999 -9999 -9999 -9999 -9999 -9999 -9999 -9999 -9999 -9999 -9999 -9999 -9999 -9999 -9999 -9999 -9999 -9999 -9999 -9999 -9999 -9999 -9999 -9999 -9999 -9999 -9999 -9999 -9999 -9999 -9999 -9999 -9999 -9999 -9999 -9999 -9999 -9999 -9999 -9999 -9999 -9999 -9999 -9999 -9999 -9999 -9999 -9999 -9999 -9999 -9999 -9999 -9999 -9999 -9999 -9999 -9999 -9999 -9999 -9999 -9999 -9999 -9999 -9999 -9999 -9999 -9999 -9999 -9999 -9999 -9999 -9999 -9999 -9999 -9999 -9999
-9999 -9999 -9999 -9999 -9999 -9999 -9999 -9999 -9999 -9999 -9999 -9999 -9999 -9999 -187 -187 -9999 -9999 -9999 -9999 -9999 -9999 -187 -173 -173 -186 -200 -198 -161 -164 -164 -164 -164 -164 -110 -82 -62 -20 -7 -5 -7 -7 -3 11 10 50 62 47 40 38 10 7 8 8 10 39 25 10 2 1 3 3 3 9 12 14 16 21 25 30 34 40 48 56 54 56 59 63 66 67 73 75 78 82 86 90 93 97 101 106 112 116 120 124 128 132 129 130 137 141 141 146 144 144 148 153 162 173 183 189 194 195 218 233 235 239 243 256 271 263 260 261 259 263 266 278 289 299 288 277 269 267 262 260 266 269 276 281 285 293 303 308 314 320 325 320 319 321 325 335 351 375 442 475 511 517 535 531 541 533 513 489 471 471 476 482 490 498 508 524 534 543 555 560 558 562 572 586 558 572 589 604 630 657 684 710 747 778 797 810 848 894 939 961 985 1022 1011 978 1016 1062 1126 1119 1131 1175 1181 1195 1208 1213 1228 1248 1262 1281 1295 1309 1319 1326 1335 1338 1340 1342 1346 1340 1323 1300 1266 1230 1197 1163 1113 1009 941 991 1039 1017 952 1010 994 951 918 899 874 829 783 718 642 558 551 540 536 543 541 534 525 517 511 503 488 470 458 436 434 407 375 375 370 360 361 348 330 318 306 288 281 262 248 237 240 232 232 226 220 193 200 193 199 191 195 193 204 191 189 188 193 188 187 180 174 169 165 161 158 162 163 159 151 150 149 147 147 156 161 152 144 140 140 146 150 151 151 150 151 152 153 152 150 149 137 135 138 154 166 162 153 151 150 148 147 151 157 155 153 153 153 153 153 153 152 150 149 152 155 154 151 147 143 142 140 139 138 140 141 134 135 124 122 120 115 102 102 89 92 79 76 72 77 87 72 56 51 54 54 51 43 21 9 -9 -28 -43 -54 -51 -54 -59 -79 -106 -127 -137 -9999 -9999 -9999 -9999 -9999 -9999 -9999 -9999 -9999 -9999 -9999 -9999 -9999 -9999 -9999 -9999 -9999 -9999 -9999 -9999 -9999 -9999 -9999 -9999 -9999 -9999 -9999 -9999 -9999 -9999 -9999 -9999 -9999 -9999 -9999 -9999 -9999 -9999 -9999 -9999 -9999 -9999 -9999 -9999 -9999 -9999 -9999 -9999 -9999 -9999 -9999 -9999 -9999 -9999 -9999 -9999 -9999 -9999 -9999 -9999 -9999 -9999 -9999 -9999 -9999 -9999 -9999 -9999 -9999 -9999 -9999 -9999 -9999 -9999 -9999 -9999 -9999 -9999 -9999 -9999 -9999 -9999 -9999 -9999 -9999 -9999 -9999 -9999 -9999 -9999
-9999 -9999 -9999 -9999 -9999 -9999 -9999 -9999 -9999 -9999 -9999 -9999 -9999 -9999 -9999 -187 -187 -9999 -9999 -9999 -9999 -9999 -176 -144 -141 -155 -164 -164 -68 -10 -10 -10 -10 -10 -2 -8 -15 10 1 10 2 4 10 44 46 10 7 2 0 -4 -24 -30 -29 -23 -12 13 41 50 12 2 3 3 3 7 13 14 17 22 25 29 34 39 46 53 57 58 59 64 67 69 73 74 80 83 87 92 94 97 101 106 111 117 122 123 127 131 134 135 138 139 141 144 144 145 148 153 159 171 181 187 190 193 214 229 236 243 255 266 272 269 267 267 266 268 270 278 290 300 292 282 273 269 265 264 265 270 275 280 288 297 309 313 317 321 326 325 325 324 328 341 368 413 465 523 540 527 561 562 556 541 517 497 485 485 489 493 503 513 521 540 545 552 561 559 564 568 568 579 598 599 611 623 650 677 707 736 779 812 822 825 868 914 965 993 1012 1023 1034 1073 1084 1117 1109 1140 1154 1177 1188 1214 1224 1235 1255 1273 1283 1304 1315 1324 1333 1333 1338 1337 1336 1340 1341 1332 1306 1272 1232 1205 1174 1131 1095 966 983 1019 1029 1020 1017 1002 963 920 888 863 830 771 730 673 582 547 533 528 529 538 534 526 514 502 492 481 465 435 427 404 392 374 376 365 351 347 340 315 291 269 261 244 258 227 217 199 204 192 194 189 192 186 193 186 188 185 187 189 196 188 184 181 182 181 179 172 164 160 157 154 154 157 160 158 148 143 140 140 142 151 157 152 138 134 138 141 143 144 144 141 140 145 149 146 139 136 128 128 135 151 166 163 157 148 143 142 143 145 147 148 148 149 150 151 151 150 149 146 145 148 150 149 146 143 140 139 139 136 135 136 136 129 129 119 116 115 109 93 95 81 85 76 72 65 66 63 58 49 47 51 48 40 29 12 0 -19 -38 -56 -66 -59 -57 -70 -96 -127 -142 -9999 -9999 -9999 -9999 -9999 -9999 -9999 -9999 -9999 -9999 -9999 -9999 -9999 -9999 -9999 -9999 -9999 -9999 -9999 -9999 -9999 -9999 -9999 -9999 -9999 -9999 -9999 -9999 -9999 -9999 -9999 -9999 -9999 -9999 -9999 -9999 -9999 -9999 -9999 -9999 -9999 -9999 -9999 -9999 -9999 -9999 -9999 -9999 -9999 -9999 -9999 -9999 -9999 -9999 -9999 -9999 -9999 -9999 -9999 -9999 -9999 -9999 -9999 -9999 -9999 -9999 -9999 -9999 -9999 -9999 -9999 -9999 -9999 -9999 -9999 -9999 -9999 -9999 -9999 -9999 -9999 -9999 -9999 -9999 -9999 -9999 -9999 -9999 -9999 -9999 -9999
-9999 -9999 -9999 -9999 -9999 -9999 -9999 -9999 -9999 -9999 -9999 -9999 -9999 -9999 -9999 -9999 -186 -187 -187 -9999 -9999 -9999 -133 -79 -77 -77 -10 -10 -10 -10 -10 -10 -10 -10 -10 0 1 93 56 47 0 3 41 3 -24 -46 -51 -51 -50 -52 -60 -63 -60 -51 -36 -15 0 0 50 15 10 6 4 2 8 12 15 18 22 27 31 35 38 47 58 60 61 66 70 73 75 76 82 84 89 96 98 101 103 110 114 123 129 124 128 129 133 135 135 135 139 142 145 146 150 154 156 167 180 187 193 208 220 229 239 241 253 272 272 273 273 273 273 276 274 280 291 301 296 286 275 272 261 263 264 267 271 279 290 298 310 315 321 323 327 326 326 321 323 341 372 430 473 512 545 527 536 556 564 537 491 494 493 493 498 507 517 525 534 551 553 555 559 565 568 559 558 596 614 623 631 648 677 706 738 766 799 827 855 874 902 957 991 1008 1012 985 978 1022 1043 1097 1132 1165 1173 1199 1229 1233 1236 1250 1271 1291 1311 1325 1324 1328 1330 1344 1351 1340 1330 1334 1324 1311 1292 1238 1195 1173 1124 1024 924 1034 1006 946 998 1006 1003 979 935 886 846 807 743 668 624 558 526 521 519 513 509 509 504 497 488 478 466 431 411 375 372 362 356 342 339 329 313 293 271 272 276 237 215 198 194 172 179 172 169 164 164 163 166 167 163 169 178 177 178 180 184 180 173 172 172 171 170 166 160 154 150 149 149 152 150 157 146 140 134 135 137 147 153 149 137 130 134 138 140 139 134 133 134 141 146 142 135 127 121 122 128 143 154 152 144 139 135 136 138 140 142 143 143 145 146 148 148 147 146 142 141 145 150 147 142 139 137 136 135 132 129 131 131 122 123 116 111 111 103 86 89 76 79 68 65 59 60 52 50 41 43 48 40 29 17 7 -6 -22 -39 -54 -61 -62 -73 -123 -136 -9999 -9999 -9999 -9999 -9999 -9999 -9999 -9999 -9999 -9999 -9999 -9999 -9999 -9999 -9999 -9999 -9999 -9999 -9999 -9999 -9999 -9999 -9999 -9999 -9999 -9999 -9999 -9999 -9999 -9999 -9999 -9999 -9999 -9999 -9999 -9999 -9999 -9999 -9999 -9999 -9999 -9999 -9999 -9999 -9999 -9999 -9999 -9999 -9999 -9999 -9999 -9999 -9999 -9999 -9999 -9999 -9999 -9999 -9999 -9999 -9999 -9999 -9999 -9999 -9999 -9999 -9999 -9999 -9999 -9999 -9999 -9999 -9999 -9999 -9999 -9999 -9999 -9999 -9999 -9999 -9999 -9999 -9999 -9999 -9999 -9999 -9999 -9999 -9999 -9999 -9999 -9999 -9999
-9999 -9999 -9999 -9999 -9999 -9999 -9999 -9999 -9999 -9999 -9999 -9999 -9999 -9999 -9999 -9999 -9999 -186 -186 -187 -184 -163 -105 -10 -10 -10 -10 -164 -164 -164 -164 -164 -164 -164 -164 -164 -23 -77 -77 -77 -97 -164 -164 -119 -102 -110 -112 -106 -100 -97 -98 -96 -91 -79 -61 -39 -24 -15 10 30 21 16 5 3 6 12 14 16 20 26 31 33 35 39 48 60 68 74 76 78 78 74 76 83 92 99 103 107 113 125 129 133 137 138 135 132 132 134 134 136 137 142 144 146 152 158 161 166 173 179 187 207 219 231 244 248 256 263 262 268 269 269 275 281 277 286 292 298 303 295 280 280 216 246 257 263 267 276 289 300 313 318 331 337 336 328 326 314 308 335 370 438 470 492 550 525 551 563 566 536 451 496 499 498 505 520 532 535 541 564 559 554 555 567 564 558 582 608 626 641 650 673 708 736 773 796 825 848 893 919 924 959 979 985 973 959 1056 1080 1162 1132 1173 1191 1201 1218 1230 1249 1248 1261 1280 1301 1327 1328 1333 1330 1310 1346 1350 1339 1321 1329 1301 1288 1278 1207 1162 1148 1094 963 1022 1010 1020 973 949 974 971 947 900 839 787 743 650 558 553 515 508 506 501 491 482 476 470 461 452 441 438 375 378 361 347 324 323 306 298 291 278 256 240 245 242 220 190 152 128 80 138 152 152 148 142 141 137 136 133 153 164 163 162 165 170 173 166 162 158 159 159 160 152 150 147 146 146 147 149 155 146 141 137 138 141 147 148 145 137 132 130 130 139 137 128 127 130 139 144 137 127 122 119 121 128 138 145 143 136 132 130 130 131 134 136 138 140 141 143 144 145 144 141 138 136 140 143 141 137 136 134 132 130 127 125 126 124 113 112 110 106 103 95 82 84 71 73 64 61 54 53 48 46 37 33 36 29 17 6 4 -8 -22 -37 -49 -59 -79 -128 -9999 -9999 -9999 -9999 -9999 -9999 -9999 -9999 -9999 -9999 -9999 -9999 -9999 -9999 -9999 -9999 -9999 -9999 -9999 -9999 -9999 -9999 -9999 -9999 -9999 -9999 -9999 -9999 -9999 -9999 -9999 -9999 -9999 -9999 -9999 -9999 -9999 -9999 -9999 -9999 -9999 -9999 -9999 -9999 -9999 -9999 -9999 -9999 -9999 -9999 -9999 -9999 -9999 -9999 -9999 -9999 -9999 -9999 -9999 -9999 -9999 -9999 -9999 -9999 -9999 -9999 -9999 -9999 -9999 -9999 -9999 -9999 -9999 -9999 -9999 -9999 -9999 -9999 -9999 -9999 -9999 -9999 -9999 -9999 -9999 -9999 -9999 -9999 -9999 -9999 -9999 -9999 -9999 -9999 -9999
-9999 -9999 -9999 -9999 -9999 -9999 -9999 -9999 -9999 -9999 -9999 -9999 -9999 -9999 -9999 -9999 -9999 -9999 -9999 -9999 -9999 -186 -179 -176 -176 -122 -115 -185 -197 -200 -200 -200 -198 -189 -185 -151 -43 -71 -97 -122 -155 -197 -200 -177 -173 -169 -166 -152 -142 -135 -132 -128 -122 -108 -84 -55 -34 -24 -15 1 15 30 10 10 8 10 12 14 18 25 31 33 35 37 46 61 74 79 81 83 86 84 79 84 96 102 106 111 117 138 139 139 139 140 140 133 132 134 137 139 136 142 144 147 154 163 164 163 169 176 189 212 222 240 253 258 263 266 266 268 264 262 273 283 284 286 288 292 301 305 290 278 248 254 260 265 268 274 285 287 310 330 337 330 330 323 319 310 307 323 346 375 468 512 555 552 563 569 571 548 492 500 504 504 513 530 539 542 549 562 564 556 558 558 558 579 603 628 648 672 688 710 736 755 802 835 871 917 921 926 958 967 987 981 980 1054 1138 1111 1082 1200 1210 1209 1219 1236 1244 1257 1270 1280 1290 1305 1321 1326 1335 1345 1275 1333 1345 1349 1348 1305 1273 1236 1175 1155 1131 1085 951 967 1014 976 997 1007 991 972 937 901 853 777 697 636 558 514 513 502 492 486 478 467 456 445 433 420 403 375 371 350 348 336 317 301 294 274 266 264 255 238 211 193 231 234 209 179 158 151 150 149 150 143 137 134 131 120 97 126 145 147 145 152 160 165 158 155 153 152 152 152 151 150 148 145 143 141 139 138 137 135 135 138 141 144 142 138 135 131 123 122 132 138 129 126 129 138 141 132 123 118 116 118 127 136 141 137 129 126 123 124 126 129 132 134 136 138 139 140 142 139 137 136 137 138 139 138 135 134 133 131 129 125 121 123 123 108 104 105 98 93 83 73 75 63 67 58 56 50 45 41 37 24 26 24 19 7 5 0 -12 -27 -38 -46 -57 -90 -176 -9999 -9999 -9999 -9999 -9999 -9999 -9999 -9999 -9999 -9999 -9999 -9999 -9999 -9999 -9999 -9999 -9999 -9999 -9999 -9999 -9999 -9999 -9999 -9999 -9999 -9999 -9999 -9999 -9999 -9999 -9999 -9999 -9999 -9999 -9999 -9999 -9999 -9999 -9999 -9999 -9999 -9999 -9999 -9999 -9999 -9999 -9999 -9999 -9999 -9999 -9999 -9999 -9999 -9999 -9999 -9999 -9999 -9999 -9999 -9999 -9999 -9999 -9999 -9999 -9999 -9999 -9999 -9999 -9999 -9999 -9999 -9999 -9999 -9999 -9999 -9999 -9999 -9999 -9999 -9999 -9999 -9999 -9999 -9999 -9999 -9999 -9999 -9999 -9999 -9999 -9999 -9999 -9999 -9999 -9999
-9999 -9999 -9999 -9999 -9999 -9999 -9999 -9999 -9999 -9999 -9999 -9999 -9999 -9999 -9999 -9999 -9999 -9999 -9999 -9999 -9999 -9999 -9999 -9999 -9999 -9999 -178 -190 -189 -196 -200 -200 -197 -194 -188 -162 -105 -69 -92 -128 -169 -192 -196 -186 -177 -181 -182 -175 -170 -163 -159 -156 -151 -137 -109 -62 -34 -21 -19 -19 -6 10 45 43 21 21 14 15 17 22 27 31 35 38 44 58 68 73 77 80 86 89 82 90 98 100 101 105 111 121 124 127 132 137 140 139 138 139 140 141 140 143 146 151 158 164 166 168 170 180 191 216 240 255 263 266 268 271 271 267 263 264 276 286 282 283 284 284 298 306 292 283 274 268 269 269 270 271 286 268 310 338 326 311 323 318 315 311 309 324 357 402 507 529 545 562 568 568 576 572 519 513 513 508 518 540 544 547 552 558 562 565 605 602 602 618 624 636 661 696 723 749 769 765 830 863 885 909 897 924 1013 997 1012 972 1057 1112 1144 1152 1162 1179 1207 1217 1214 1243 1259 1275 1287 1289 1296 1309 1317 1321 1330 1336 1351 1342 1339 1339 1281 1255 1239 1163 1157 1123 1075 930 983 988 1006 979 995 958 891 909 875 834 788 697 599 551 507 487 489 481 471 467 460 443 430 413 398 385 374 356 339 328 322 309 284 275 267 236 231 237 235 234 209 213 228 220 192 185 167 151 139 134 133 132 132 128 129 125 117 124 135 138 139 145 149 159 154 152 149 147 146 146 147 150 148 145 141 137 132 131 130 129 131 134 135 137 135 133 131 127 120 117 127 137 127 122 124 131 122 118 114 109 107 112 122 132 138 133 125 123 122 122 124 126 129 131 133 133 133 134 136 134 133 134 137 137 136 135 135 134 131 130 126 123 119 118 117 104 99 96 86 86 75 66 67 57 60 50 50 42 40 34 30 18 16 13 14 7 0 -8 -16 -26 -35 -43 -65 -147 -9999 -189 -9999 -9999 -9999 -9999 -9999 -9999 -9999 -9999 -9999 -9999 -9999 -9999 -9999 -9999 -9999 -9999 -9999 -9999 -9999 -9999 -9999 -9999 -9999 -9999 -9999 -9999 -9999 -9999 -9999 -9999 -9999 -9999 -9999 -9999 -9999 -9999 -9999 -9999 -9999 -9999 -9999 -9999 -9999 -9999 -9999 -9999 -9999 -9999 -9999 -9999 -9999 -9999 -9999 -9999 -9999 -9999 -9999 -9999 -9999 -9999 -9999 -9999 -9999 -9999 -9999 -9999 -9999 -9999 -9999 -9999 -9999 -9999 -9999 -9999 -9999 -9999 -9999 -9999 -9999 -9999 -9999 -9999 -9999 -9999 -9999 -9999 -9999 -9999 -9999 -9999 -9999 -9999 -9999 -9999
-9999 -9999 -9999 -9999 -9999 -9999 -9999 -9999 -9999 -9999 -9999 -9999 -9999 -9999 -9999 -9999 -9999 -9999 -9999 -9999 -9999 -9999 -9999 -9999 -9999 -9999 -9999 -189 -187 -189 -191 -190 -186 -189 -190 -184 -169 -92 -91 -117 -149 -171 -180 -181 -180 -185 -186 -183 -180 -175 -173 -172 -171 -163 -137 -59 -33 -19 -22 -24 -22 -18 10 56 47 44 21 21 18 19 24 29 34 40 48 56 61 65 69 71 80 81 92 94 91 92 94 96 102 106 112 115 121 131 135 140 141 141 141 142 142 143 146 151 160 162 163 164 169 190 203 218 251 260 262 254 262 272 273 268 264 265 278 288 277 283 288 293 307 301 284 280 277 272 269 269 273 275 283 289 323 339 315 314 325 322 321 321 323 336 353 375 467 512 537 554 556 558 581 565 534 521 516 515 525 539 546 552 555 566 573 584 612 627 632 638 646 660 677 712 749 784 808 808 840 889 909 925 929 976 1032 990 1007 1078 1108 1138 1143 1167 1173 1187 1230 1232 1239 1261 1281 1292 1296 1308 1313 1317 1321 1327 1334 1345 1361 1357 1353 1348 1220 1196 1199 1171 1111 1084 1066 996 997 975 995 988 960 934 891 863 810 736 645 558 532 502 475 466 463 458 452 444 433 418 406 375 366 354 338 320 300 289 280 268 252 247 246 193 190 191 193 199 196 177 160 149 125 140 140 129 115 111 111 115 117 117 121 119 117 121 128 132 136 143 150 151 148 149 145 143 142 142 143 148 150 145 141 137 132 129 127 127 127 129 129 130 128 127 126 123 117 113 125 136 123 118 118 125 117 110 102 99 98 108 118 126 131 128 122 120 121 120 121 122 125 126 127 127 126 126 130 129 128 129 131 132 132 131 130 132 129 128 124 119 109 105 100 90 87 83 73 77 64 53 60 47 50 40 40 32 30 25 20 10 11 8 3 -1 -9 -17 -22 -30 -39 -52 -90 -9999 -9999 -9999 -177 -9999 -9999 -9999 -9999 -9999 -9999 -9999 -9999 -9999 -9999 -9999 -9999 -9999 -9999 -9999 -9999 -9999 -9999 -9999 -9999 -9999 -9999 -9999 -9999 -9999 -9999 -9999 -9999 -9999 -9999 -9999 -9999 -9999 -9999 -9999 -9999 -9999 -9999 -9999 -9999 -9999 -9999 -9999 -9999 -9999 -9999 -9999 -9999 -9999 -9999 -9999 -9999 -9999 -9999 -9999 -9999 -9999 -9999 -9999 -9999 -9999 -9999 -9999 -9999 -9999 -9999 -9999 -9999 -9999 -9999 -9999 -9999 -9999 -9999 -9999 -9999 -9999 -9999 -9999 -9999 -9999 -9999 -9999 -9999 -9999 -9999 -9999 -9999 -9999 -9999 -9999 -9999 -9999
-9999 -9999 -9999 -9999 -9999 -9999 -9999 -9999 -9999 -9999 -9999 -9999 -9999 -9999 -9999 -9999 -9999 -9999 -9999 -9999 -9999 -9999 -9999 -9999 -9999 -9999 -9999 -9999 -186 -186 -187 -186 -184 -184 -182 -173 -153 -112 -105 -112 -132 -151 -165 -174 -181 -185 -186 -183 -179 -176 -168 -163 -162 -167 -164 -54 -52 -41 -38 -32 -29 -26 -13 3 10 60 60 42 24 18 21 25 32 37 44 51 56 60 64 67 72 73 76 83 85 87 89 92 99 104 106 109 115 123 129 134 136 136 136 137 139 141 142 144 149 152 153 156 164 190 202 193 213 222 239 242 255 268 274 275 273 273 280 287 294 291 287 293 308 299 288 281 277 273 266 265 271 277 284 296 317 340 311 321 327 327 330 334 340 356 374 404 467 511 536 554 556 589 576 553 536 527 521 523 532 541 550 572 575 584 589 597 615 636 652 655 669 691 704 735 774 818 851 842 845 919 925 934 963 1003 1053 1022 1077 1103 1136 1165 1144 1188 1221 1227 1246 1255 1264 1282 1305 1309 1306 1316 1330 1328 1329 1337 1338 1348 1359 1346 1312 1244 1211 1159 1159 1135 1089 1019 970 1015 1000 937 979 964 894 915 892 825 749 653 558 586 538 491 475 455 441 433 430 416 402 387 380 373 350 334 306 285 262 251 238 225 214 205 201 221 204 192 191 195 185 131 54 36 -7 -1 70 100 99 93 95 101 105 103 110 112 114 118 122 127 132 138 143 144 143 145 144 141 140 138 138 142 143 141 139 137 133 130 126 124 123 124 122 125 123 122 120 117 111 108 117 136 117 112 114 119 113 107 102 98 99 105 113 122 127 124 118 117 117 115 114 118 121 121 121 120 120 121 124 123 120 123 127 128 129 126 123 127 122 115 112 104 86 82 76 64 65 63 53 56 50 45 59 36 36 29 32 30 23 17 9 2 2 1 -1 -8 -15 -21 -27 -37 -48 -70 -114 -9999 -9999 -9999 -9999 -9999 -9999 -9999 -9999 -9999 -9999 -9999 -9999 -9999 -9999 -9999 -9999 -9999 -9999 -9999 -9999 -9999 -9999 -9999 -9999 -9999 -9999 -9999 -9999 -9999 -9999 -9999 -9999 -9999 -9999 -9999 -9999 -9999 -9999 -9999 -9999 -9999 -9999 -9999 -9999 -9999 -9999 -9999 -9999 -9999 -9999 -9999 -9999 -9999 -9999 -9999 -9999 -9999 -9999 -9999 -9999 -9999 -9999 -9999 -9999 -9999 -9999 -9999 -9999 -9999 -9999 -9999 -9999 -9999 -9999 -9999 -9999 -9999 -9999 -9999 -9999 -9999 -9999 -9999 -9999 -9999 -9999 -9999 -9999 -9999 -9999 -9999 -9999 -9999 -9999 -9999 -9999 -9999
-9999 -9999 -9999 -9999 -9999 -9999 -9999 -9999 -9999 -9999 -9999 -9999 -9999 -9999 -9999 -9999 -9999 -9999 -9999 -9999 -9999 -9999 -9999 -9999 -9999 -9999 -9999 -9999 -9999 -9999 -9999 -186 -183 -180 -174 -160 -139 -128 -129 -134 -131 -142 -157 -169 -179 -184 -184 -179 -171 -162 -150 -137 -122 -102 -74 -164 -134 -99 -73 -51 -34 -29 -25 -20 -15 4 65 55 47 25 19 22 31 35 40 45 52 57 60 63 67 69 72 76 81 85 88 91 96 99 101 106 110 117 124 128 131 131 131 133 137 139 138 136 138 144 145 152 166 187 180 178 188 202 226 240 253 268 276 280 278 279 283 291 299 300 297 300 308 304 297 290 283 275 268 266 272 283 292 303 315 329 342 339 339 340 346 358 361 361 375 432 503 554 554 555 558 602 591 557 543 537 536 538 542 547 555 577 591 601 606 614 631 654 672 679 691 713 736 767 805 844 876 877 884 914 928 968 997 1010 955 1092 1087 1101 1148 1193 1145 1186 1193 1226 1252 1261 1278 1297 1317 1324 1321 1321 1345 1347 1349 1352 1354 1356 1353 1327 1273 1212 1182 1159 1113 1077 1002 968 1007 958 919 958 952 897 884 900 842 758 649 558 532 530 507 475 456 436 418 403 394 375 367 359 349 332 311 293 277 266 248 225 207 191 186 184 186 199 194 187 187 191 157 33 -83 -103 -176 -176 -10 66 80 84 84 87 90 95 100 103 107 111 117 123 128 133 137 138 138 142 142 143 140 137 138 138 137 135 133 132 131 127 124 122 121 121 121 123 118 116 115 112 108 105 117 135 112 105 106 112 112 106 99 95 95 102 111 120 126 121 112 111 111 110 111 115 118 117 114 114 115 117 119 121 118 119 120 120 120 117 114 111 93 53 44 51 38 41 40 31 38 37 31 35 32 23 25 18 23 19 23 28 17 12 4 -6 -2 0 -6 -14 -20 -27 -36 -46 -55 -79 -128 -9999 -9999 -9999 -9999 -9999 -9999 -9999 -9999 -9999 -9999 -9999 -9999 -9999 -9999 -9999 -9999 -9999 -9999 -9999 -9999 -9999 -9999 -9999 -9999 -9999 -9999 -9999 -9999 -9999 -9999 -9999 -9999 -9999 -9999 -9999 -9999 -9999 -9999 -9999 -9999 -9999 -9999 -9999 -9999 -9999 -9999 -9999 -9999 -9999 -9999 -9999 -9999 -9999 -9999 -9999 -9999 -9999 -9999 -9999 -9999 -9999 -9999 -9999 -9999 -9999 -9999 -9999 -9999 -9999 -9999 -9999 -9999 -9999 -9999 -9999 -9999 -9999 -9999 -9999 -9999 -9999 -9999 -9999 -9999 -9999 -9999 -9999 -9999 -9999 -9999 -9999 -9999 -9999 -9999 -9999 -9999 -9999
-9999 -9999 -9999 -9999 -9999 -9999 -9999 -9999 -9999 -9999 -9999 -9999 -9999 -9999 -9999 -9999 -9999 -9999 -9999 -9999 -9999 -9999 -9999 -9999 -9999 -9999 -9999 -9999 -9999 -9999 -9999 -186 -184 -180 -174 -163 -153 -151 -159 -169 -154 -148 -157 -168 -178 -183 -182 -174 -163 -149 -133 -118 -103 -91 -97 -160 -167 -142 -108 -70 -38 -30 -29 -26 -21 -13 1 29 62 40 29 24 29 32 37 44 49 53 58 61 65 67 68 74 80 86 93 96 95 96 99 105 109 114 119 123 129 133 138 142 140 138 136 137 140 143 148 165 174 175 172 173 180 190 227 246 260 274 278 285 283 283 285 294 303 307 307 302 306 309 304 298 290 278 270 267 269 280 285 301 312 325 340 344 349 352 360 385 386 373 405 465 546 616 573 579 621 615 615 573 554 547 551 552 553 559 571 591 610 620 623 629 649 675 693 703 711 736 765 798 832 865 900 904 913 917 940 1007 1031 1040 1045 1135 1092 1127 1165 1214 1235 1251 1240 1248 1261 1255 1283 1300 1306 1320 1334 1342 1330 1330 1330 1334 1321 1322 1298 1199 1207 1171 1150 1125 1094 1059 960 969 1001 900 958 948 845 897 863 825 784 691 565 524 526 476 456 444 431 411 394 375 374 366 348 334 321 294 269 251 241 232 230 201 189 182 178 174 173 178 176 169 164 163 112 -66 -9999 -9999 -9999 -9999 -9999 1 50 65 67 67 72 81 88 91 95 98 106 111 117 123 132 133 136 137 138 139 137 133 135 135 134 132 129 126 125 123 121 119 119 118 119 119 117 115 112 109 106 111 134 134 108 100 100 105 107 102 94 91 92 99 110 118 123 118 110 106 102 105 108 112 115 113 110 109 110 111 114 119 112 112 108 106 105 103 97 87 55 -45 -54 -7 -4 -1 17 12 13 13 15 20 19 11 6 6 10 8 9 14 11 9 0 -9 0 -1 -12 -23 -28 -33 -45 -51 -61 -80 -9999 -9999 -9999 -9999 -9999 -9999 -9999 -9999 -9999 -9999 -9999 -9999 -9999 -9999 -9999 -9999 -9999 -9999 -9999 -9999 -9999 -9999 -9999 -9999 -9999 -9999 -9999 -9999 -9999 -9999 -9999 -9999 -9999 -9999 -9999 -9999 -9999 -9999 -9999 -9999 -9999 -9999 -9999 -9999 -9999 -9999 -9999 -9999 -9999 -9999 -9999 -9999 -9999 -9999 -9999 -9999 -9999 -9999 -9999 -9999 -9999 -9999 -9999 -9999 -9999 -9999 -9999 -9999 -9999 -9999 -9999 -9999 -9999 -9999 -9999 -9999 -9999 -9999 -9999 -9999 -9999 -9999 -9999 -9999 -9999 -9999 -9999 -9999 -9999 -9999 -9999 -9999 -9999 -9999 -9999 -9999 -9999 -9999
-9999 -9999 -9999 -9999 -9999 -9999 -9999 -9999 -9999 -9999 -9999 -9999 -9999 -9999 -9999 -9999 -9999 -9999 -9999 -9999 -9999 -9999 -9999 -9999 -9999 -9999 -9999 -9999 -9999 -9999 -9999 -186 -185 -184 -181 -178 -171 -170 -173 -177 -168 -162 -164 -172 -179 -183 -180 -172 -159 -141 -127 -118 -117 -108 -117 -155 -173 -168 -138 -93 -43 -35 -32 -28 -22 -10 -12 0 18 61 59 40 32 30 35 43 48 52 57 60 65 67 69 74 79 86 95 89 89 93 96 104 109 112 116 121 131 138 149 160 146 141 137 142 145 143 143 154 155 159 165 171 182 191 240 253 261 270 275 291 289 290 287 299 306 312 312 307 308 311 309 303 292 279 272 270 275 281 289 300 311 324 337 345 353 361 371 388 404 375 417 471 553 618 558 584 622 628 619 586 557 550 555 555 553 572 592 614 630 638 641 650 668 689 709 729 743 768 794 823 851 876 900 909 918 924 975 1010 1039 1082 1119 1220 1145 1119 1186 1224 1242 1250 1263 1268 1273 1272 1289 1299 1303 1313 1327 1335 1332 1336 1341 1331 1319 1288 1226 1195 1200 1135 1122 1069 1051 1034 954 980 953 931 942 907 871 861 791 714 688 560 520 489 477 451 432 418 398 375 370 360 354 344 325 304 284 259 241 230 213 192 184 178 172 166 163 165 166 166 161 151 126 42 -176 -9999 -9999 -9999 -9999 -9999 -9999 -59 18 44 51 55 61 69 75 75 77 82 88 89 90 103 118 119 124 126 132 133 136 132 132 132 133 131 127 123 120 117 117 118 117 116 116 116 115 113 110 104 99 98 113 133 105 96 95 101 103 98 90 89 91 96 103 113 120 116 109 105 104 102 102 107 112 108 104 103 103 102 101 101 101 103 94 90 86 86 72 46 18 -176 -9999 -101 -176 -97 -7 -4 -6 -8 6 8 13 5 1 6 9 9 5 10 12 -7 -24 -17 -8 -6 -18 -32 -37 -45 -54 -62 -86 -128 -9999 -9999 -9999 -9999 -9999 -9999 -9999 -9999 -9999 -9999 -9999 -9999 -9999 -9999 -9999 -9999 -9999 -9999 -9999 -9999 -9999 -9999 -9999 -9999 -9999 -9999 -9999 -9999 -9999 -9999 -9999 -9999 -9999 -9999 -9999 -9999 -9999 -9999 -9999 -9999 -9999 -9999 -9999 -9999 -9999 -9999 -9999 -9999 -9999 -9999 -9999 -9999 -9999 -9999 -9999 -9999 -9999 -9999 -9999 -9999 -9999 -9999 -9999 -9999 -9999 -9999 -9999 -9999 -9999 -9999 -9999 -9999 -9999 -9999 -9999 -9999 -9999 -9999 -9999 -9999 -9999 -9999 -9999 -9999 -9999 -9999 -9999 -9999 -9999 -9999 -9999 -9999 -9999 -9999 -9999 -9999 -9999 -9999
-9999 -9999 -9999 -9999 -9999 -9999 -9999 -9999 -9999 -9999 -9999 -9999 -9999 -9999 -9999 -9999 -9999 -9999 -9999 -9999 -9999 -9999 -9999 -9999 -9999 -9999 -9999 -9999 -9999 -9999 -9999 -9999 -186 -186 -185 -184 -182 -181 -181 -181 -177 -173 -174 -178 -181 -182 -180 -173 -162 -141 -133 -145 -146 -133 -129 -154 -175 -181 -168 -130 -83 -54 -39 -30 -21 -21 -21 -15 -6 10 41 55 38 34 34 37 47 56 60 61 64 66 68 74 78 84 89 88 90 92 96 101 106 111 116 122 135 151 159 155 160 152 146 149 147 147 149 155 155 157 163 167 179 189 221 244 258 268 280 293 315 311 302 308 309 318 318 311 309 311 312 308 293 280 274 272 282 283 291 300 311 325 337 343 352 355 354 366 393 425 442 461 540 620 617 616 636 641 628 602 573 556 561 560 558 589 612 638 651 658 659 671 686 703 720 737 769 802 824 850 870 886 908 926 955 1043 1036 1038 1062 1129 1138 1223 1155 1144 1233 1237 1239 1248 1264 1275 1282 1285 1300 1306 1308 1317 1326 1331 1334 1343 1351 1328 1309 1268 1207 1178 1092 1119 1092 985 993 1007 964 945 973 951 842 867 855 846 734 667 569 515 504 462 448 432 415 402 379 371 368 350 333 319 297 271 246 221 210 193 195 184 176 170 162 153 148 159 161 159 152 147 139 93 -93 -9999 -9999 -9999 -9999 -9999 -9999 -88 6 28 40 43 46 54 64 61 63 69 72 72 71 78 83 90 93 102 111 123 135 131 130 131 132 130 127 124 116 109 112 115 114 113 113 113 113 112 109 104 97 93 108 133 105 94 94 100 103 97 90 88 89 92 98 108 116 114 105 102 100 98 98 100 102 100 97 97 97 94 91 88 85 85 78 78 74 72 48 -51 -95 -9999 -9999 -9999 -9999 -9999 -176 -176 -100 -83 -18 -14 8 7 -6 0 -10 -4 -18 -4 -18 -176 -128 -63 -34 -24 -31 -35 -39 -55 -70 -84 -123 -9999 -9999 -9999 -9999 -9999 -9999 -9999 -9999 -9999 -9999 -9999 -9999 -9999 -9999 -9999 -9999 -9999 -9999 -9999 -9999 -9999 -9999 -9999 -9999 -9999 -9999 -9999 -9999 -9999 -9999 -9999 -9999 -9999 -9999 -9999 -9999 -9999 -9999 -9999 -9999 -9999 -9999 -9999 -9999 -9999 -9999 -9999 -9999 -9999 -9999 -9999 -9999 -9999 -9999 -9999 -9999 -9999 -9999 -9999 -9999 -9999 -9999 -9999 -9999 -9999 -9999 -9999 -9999 -9999 -9999 -9999 -9999 -9999 -9999 -9999 -9999 -9999 -9999 -9999 -9999 -9999 -9999 -9999 -9999 -9999 -9999 -9999 -9999 -9999 -9999 -9999 -9999 -9999 -9999 -9999 -9999 -9999 -9999 -9999
-9999 -9999 -9999 -9999 -9999 -9999 -9999 -9999 -9999 -9999 -9999 -9999 -9999 -9999 -9999 -9999 -9999 -9999 -9999 -9999 -9999 -9999 -9999 -9999 -9999 -9999 -9999 -9999 -9999 -9999 -9999 -9999 -9999 -186 -187 -187 -186 -186 -186 -185 -183 -181 -181 -182 -182 -181 -178 -174 -169 -146 -151 -169 -177 -156 -143 -159 -178 -188 -185 -165 -118 -70 -45 -31 -29 -31 -28 -23 -18 -8 10 35 50 48 43 46 50 52 56 59 63 66 68 74 77 81 85 86 91 92 96 99 104 110 116 121 134 159 145 140 146 161 150 162 150 151 156 159 158 157 165 163 181 193 204 235 257 273 279 277 300 317 319 321 324 327 326 318 311 310 313 309 297 286 281 277 281 282 289 299 312 328 341 347 353 356 357 365 375 408 432 467 517 558 657 647 654 653 639 612 585 567 557 558 578 605 627 648 665 673 680 694 712 727 742 764 803 842 859 881 898 909 920 964 1017 1025 1044 1056 1114 1180 1150 1225 1150 1173 1228 1240 1240 1255 1269 1282 1293 1306 1312 1316 1320 1324 1333 1347 1356 1354 1325 1291 1260 1217 1173 1154 1120 1086 1010 957 948 924 972 897 952 967 923 861 794 754 668 558 512 486 476 448 424 408 392 374 363 358 349 327 303 283 260 236 212 191 184 179 181 176 169 164 159 152 149 153 155 151 146 143 123 39 -176 -9999 -9999 -9999 -9999 -9999 -9999 -115 8 10 24 29 30 27 39 34 48 56 58 60 63 66 68 71 73 80 83 92 117 113 118 126 128 126 122 117 113 109 109 109 110 110 111 111 111 111 108 103 99 97 132 128 99 92 93 100 102 94 86 84 85 89 94 104 112 111 105 100 97 95 93 94 96 93 90 90 90 86 82 79 76 74 68 70 67 43 20 -176 -9999 -9999 -9999 -9999 -9999 -9999 -9999 -9999 -9999 -9999 -176 -176 -21 -18 -38 -26 -176 -111 -176 -176 -176 -9999 -9999 -120 -176 -97 -83 -60 -65 -97 -104 -112 -9999 -9999 -9999 -9999 -9999 -9999 -9999 -9999 -9999 -9999 -9999 -9999 -9999 -9999 -9999 -9999 -9999 -9999 -9999 -9999 -9999 -9999 -9999 -9999 -9999 -9999 -9999 -9999 -9999 -9999 -9999 -9999 -9999 -9999 -9999 -9999 -9999 -9999 -9999 -9999 -9999 -9999 -9999 -9999 -9999 -9999 -9999 -9999 -9999 -9999 -9999 -9999 -9999 -9999 -9999 -9999 -9999 -9999 -9999 -9999 -9999 -9999 -9999 -9999 -9999 -9999 -9999 -9999 -9999 -9999 -9999 -9999 -9999 -9999 -9999 -9999 -9999 -9999 -9999 -9999 -9999 -9999 -9999 -9999 -9999 -9999 -9999 -9999 -9999 -9999 -9999 -9999 -9999 -9999 -9999 -9999 -9999 -9999 -9999 -9999
-9999 -9999 -9999 -9999 -9999 -9999 -9999 -9999 -9999 -9999 -9999 -9999 -9999 -9999 -9999 -9999 -9999 -9999 -9999 -9999 -9999 -9999 -9999 -9999 -9999 -9999 -9999 -9999 -9999 -9999 -9999 -9999 -9999 -9999 -9999 -9999 -9999 -9999 -9999 -186 -186 -186 -185 -184 -182 -179 -174 -167 -158 -158 -170 -183 -184 -169 -156 -165 -180 -191 -193 -179 -142 -77 -56 -47 -42 -37 -31 -26 -22 -15 -5 7 25 43 51 56 56 56 59 60 63 65 66 72 76 81 84 86 90 93 97 101 105 110 115 122 131 146 143 141 145 153 161 157 162 162 163 162 158 157 161 166 178 185 190 221 254 286 293 290 289 302 302 306 315 320 331 325 314 313 314 312 301 291 288 280 280 281 287 297 314 332 346 351 356 361 364 376 381 400 425 491 567 698 699 655 668 664 651 622 595 586 582 591 610 626 641 656 681 688 698 716 739 754 765 787 830 864 878 906 927 941 944 1034 1088 1096 1071 1037 1106 1119 1197 1197 1230 1226 1244 1254 1252 1262 1277 1286 1293 1305 1308 1321 1328 1332 1342 1359 1347 1318 1292 1255 1214 1164 1114 1118 1105 1050 977 942 922 900 937 897 928 818 962 841 713 674 636 543 501 469 451 426 397 385 375 362 349 339 326 296 267 245 225 206 191 182 175 172 169 166 161 155 151 150 148 147 148 143 139 141 131 83 -94 -9999 -9999 -9999 -9999 -9999 -9999 -176 -4 -4 13 14 10 -33 -110 -27 30 43 45 48 54 55 58 59 62 70 74 67 77 85 94 110 121 120 116 112 110 108 107 106 107 108 108 108 107 104 108 104 101 90 103 115 98 91 91 96 93 87 82 82 83 86 91 99 104 107 104 98 93 90 88 89 90 88 87 85 83 78 73 71 69 67 58 50 41 -72 -176 -9999 -9999 -9999 -9999 -9999 -9999 -9999 -9999 -9999 -9999 -9999 -9999 -9999 -9999 -9999 -176 -176 -9999 -9999 -9999 -9999 -9999 -9999 -9999 -9999 -9999 -9999 -9999 -176 -176 -176 -145 -9999 -9999 -9999 -9999 -9999 -9999 -9999 -9999 -9999 -9999 -9999 -9999 -9999 -9999 -9999 -9999 -9999 -9999 -9999 -9999 -9999 -9999 -9999 -9999 -9999 -9999 -9999 -9999 -9999 -9999 -9999 -9999 -9999 -9999 -9999 -9999 -9999 -9999 -9999 -9999 -9999 -9999 -9999 -9999 -9999 -9999 -9999 -9999 -9999 -9999 -9999 -9999 -9999 -9999 -9999 -9999 -9999 -9999 -9999 -9999 -9999 -9999 -9999 -9999 -9999 -9999 -9999 -9999 -9999 -9999 -9999 -9999 -9999 -9999 -9999 -9999 -9999 -9999 -9999 -9999 -9999 -9999 -9999 -9999 -9999 -9999 -9999 -9999 -9999 -9999 -9999 -9999 -9999 -9999 -9999 -9999 -9999 -9999 -9999 -9999 -9999
-9999 -9999 -9999 -9999 -9999 -9999 -9999 -9999 -9999 -9999 -9999 -9999 -9999 -9999 -9999 -9999 -9999 -9999 -9999 -9999 -9999 -9999 -9999 -9999 -9999 -9999 -9999 -9999 -9999 -9999 -9999 -9999 -9999 -9999 -9999 -9999 -9999 -9999 -9999 -9999 -187 -189 -188 -185 -182 -179 -175 -170 -170 -174 -183 -188 -186 -177 -168 -172 -182 -192 -197 -193 -164 -78 -79 -74 -63 -47 -33 -27 -23 -20 -14 -7 3 18 44 54 56 59 63 63 66 67 68 72 76 82 84 86 90 94 98 104 107 110 116 121 126 135 141 142 143 145 149 143 147 151 155 163 157 157 159 169 179 184 186 210 247 300 309 311 307 305 305 309 316 324 335 330 323 320 320 318 309 296 287 278 281 286 291 301 318 335 346 352 359 365 367 374 387 408 443 501 558 680 702 676 680 668 651 628 607 600 600 609 625 641 656 672 690 701 714 732 753 771 794 818 850 879 876 910 941 964 924 1050 1125 1098 1112 1123 1147 1163 1211 1193 1224 1234 1241 1241 1256 1272 1286 1297 1304 1312 1308 1325 1345 1364 1362 1355 1334 1294 1265 1230 1178 1131 1103 1083 1056 973 924 921 905 870 946 951 954 957 918 798 680 600 556 510 477 444 421 399 381 367 355 340 325 305 286 258 232 212 193 188 181 172 168 162 161 156 152 148 145 146 144 141 139 134 133 132 111 25 -176 -9999 -9999 -9999 -9999 -9999 -9999 -9999 -176 -102 0 -10 11 18 25 20 28 31 27 31 38 36 36 39 51 57 56 50 53 63 75 95 111 110 107 105 104 104 104 104 105 107 106 106 107 102 107 99 92 85 95 104 91 89 91 90 85 81 79 80 84 85 88 97 105 104 99 92 88 86 84 84 83 83 83 80 76 71 65 64 62 61 39 -22 -86 -176 -9999 -9999 -9999 -9999 -9999 -9999 -9999 -9999 -9999 -9999 -9999 -9999 -9999 -9999 -9999 -9999 -9999 -9999 -9999 -9999 -9999 -9999 -9999 -9999 -9999 -9999 -9999 -9999 -9999 -9999 -9999 -9999 -9999 -9999 -9999 -9999 -9999 -9999 -9999 -9999 -9999 -9999 -9999 -9999 -9999 -9999 -9999 -9999 -9999 -9999 -9999 -9999 -9999 -9999 -9999 -9999 -9999 -9999 -9999 -9999 -9999 -9999 -9999 -9999 -9999 -9999 -9999 -9999 -9999 -9999 -9999 -9999 -9999 -9999 -9999 -9999 -9999 -9999 -9999 -9999 -9999 -9999 -9999 -9999 -9999 -9999 -9999 -9999 -9999 -9999 -9999 -9999 -9999 -9999 -9999 -9999 -9999 -9999 -9999 -9999 -9999 -9999 -9999 -9999 -9999 -9999 -9999 -9999 -9999 -9999 -9999 -9999 -9999 -9999 -9999 -9999 -9999 -9999 -9999 -9999 -9999 -9999 -9999 -9999 -9999 -9999 -9999 -9999 -9999 -9999 -9999 -9999 -9999 -9999
-9999 -9999 -9999 -9999 -9999 -9999 -9999 -9999 -9999 -9999 -9999 -9999 -9999 -9999 -9999 -9999 -9999 -9999 -9999 -9999 -9999 -9999 -9999 -9999 -9999 -9999 -9999 -9999 -9999 -9999 -9999 -9999 -9999 -9999 -9999 -9999 -9999 -9999 -9999 -9999 -183 -188 -188 -184 -182 -181 -180 -180 -183 -184 -9999 -9999 -9999 -185 -178 -178 -182 -186 -186 -169 -99 -164 -143 -118 -92 -64 -37 -31 -26 -22 -15 -9 -1 6 26 37 49 60 66 68 73 72 73 73 76 80 84 88 92 95 99 104 108 112 117 121 124 130 133 138 142 143 143 141 144 147 153 163 164 168 172 177 182 186 186 201 216 270 294 308 316 310 314 318 321 327 339 332 327 326 326 326 319 302 290 283 285 291 292 304 323 340 347 351 362 370 371 388 401 420 464 528 577 680 705 680 693 670 652 633 616 611 614 623 639 655 672 689 702 716 730 748 770 789 824 847 873 913 897 921 946 944 967 1101 1141 1159 1161 1162 1132 1187 1220 1222 1237 1243 1243 1254 1276 1281 1295 1306 1310 1326 1318 1328 1336 1339 1329 1328 1303 1254 1217 1211 1133 1095 1088 1054 1051 1003 932 914 851 906 879 806 839 858 804 715 626 521 494 472 441 413 390 371 366 352 336 317 300 269 247 221 203 195 187 185 176 163 162 152 153 148 146 142 141 142 140 136 132 123 123 126 109 32 -176 -9999 -9999 -9999 -9999 -9999 -9999 -9999 -9999 -176 -7 -77 -8 8 17 26 22 19 9 10 15 0 -16 0 30 35 40 33 36 46 65 83 92 93 94 97 97 98 98 100 100 102 101 102 107 102 103 95 88 83 90 92 84 85 87 85 80 77 74 75 77 80 85 93 103 100 94 88 84 82 82 81 80 79 78 75 72 66 60 60 56 49 20 -101 -176 -9999 -9999 -9999 -9999 -9999 -9999 -9999 -9999 -9999 -9999 -9999 -9999 -9999 -9999 -9999 -9999 -9999 -9999 -9999 -9999 -9999 -9999 -9999 -9999 -9999 -9999 -9999 -9999 -9999 -9999 -9999 -9999 -9999 -9999 -9999 -9999 -9999 -9999 -9999 -9999 -9999 -9999 -9999 -9999 -9999 -9999 -9999 -9999 -9999 -9999 -9999 -9999 -9999 -9999 -9999 -9999 -9999 -9999 -9999 -9999 -9999 -9999 -9999 -9999 -9999 -9999 -9999 -9999 -9999 -9999 -9999 -9999 -9999 -9999 -9999 -9999 -9999 -9999 -9999 -9999 -9999 -9999 -9999 -9999 -9999 -9999 -9999 -9999 -9999 -9999 -9999 -9999 -9999 -9999 -9999 -9999 -9999 -9999 -9999 -9999 -9999 -9999 -9999 -9999 -9999 -9999 -9999 -9999 -9999 -9999 -9999 -9999 -9999 -9999 -9999 -9999 -9999 -9999 -9999 -9999 -9999 -9999 -9999 -9999 -9999 -9999 -9999 -9999 -9999 -9999 -9999 -9999 -9999 -9999 -9999
-9999 -9999 -9999 -9999 -9999 -9999 -9999 -9999 -9999 -9999 -9999 -9999 -9999 -9999 -9999 -9999 -9999 -9999 -9999 -9999 -9999 -9999 -9999 -9999 -9999 -9999 -9999 -9999 -9999 -9999 -9999 -9999 -9999 -9999 -9999 -9999 -9999 -9999 -9999 -9999 -9999 -181 -185 -179 -181 -184 -186 -185 -9999 -9999 -9999 -9999 -9999 -186 -182 -180 -179 -177 -165 -121 -112 -161 -169 -150 -123 -93 -66 -49 -36 -27 -19 -11 -1 3 19 33 44 60 71 80 82 77 73 74 78 80 86 93 94 97 99 105 108 114 118 122 125 127 129 137 143 143 142 143 145 147 148 155 161 156 156 169 176 190 198 219 240 273 292 301 300 320 324 328 331 336 340 328 325 328 331 331 323 310 297 289 287 290 291 302 323 341 350 356 363 369 372 392 411 435 475 527 558 644 695 711 704 681 657 641 631 626 630 641 660 675 689 704 720 735 754 774 798 822 851 875 896 923 928 945 953 912 924 1144 1155 1167 1173 1205 1208 1214 1227 1234 1245 1252 1252 1262 1299 1306 1309 1310 1311 1315 1332 1336 1338 1335 1319 1290 1257 1218 1171 1130 1069 1077 1068 998 1002 1022 921 870 893 893 861 802 786 769 706 627 546 461 453 435 412 389 368 353 344 331 315 297 280 245 218 193 188 186 181 176 166 157 155 148 148 151 148 145 143 140 138 134 131 121 114 115 86 -29 -176 -9999 -9999 -9999 -9999 -9999 -9999 -9999 -9999 -9999 -176 -47 -50 -6 3 0 7 6 -20 -7 4 -37 -79 -65 -10 -18 8 8 12 25 43 68 72 72 76 84 87 88 90 92 91 91 94 98 104 101 102 94 86 82 89 87 82 82 84 82 79 76 74 73 73 76 80 85 95 96 88 83 81 80 80 79 77 75 71 70 69 64 59 57 43 16 0 -176 -9999 -9999 -9999 -9999 -9999 -9999 -9999 -9999 -9999 -9999 -9999 -9999 -9999 -9999 -9999 -9999 -9999 -9999 -9999 -9999 -9999 -9999 -9999 -9999 -9999 -9999 -9999 -9999 -9999 -9999 -9999 -9999 -9999 -9999 -9999 -9999 -9999 -9999 -9999 -9999 -9999 -9999 -9999 -9999 -9999 -9999 -9999 -9999 -9999 -9999 -9999 -9999 -9999 -9999 -9999 -9999 -9999 -9999 -9999 -9999 -9999 -9999 -9999 -9999 -9999 -9999 -9999 -9999 -9999 -9999 -9999 -9999 -9999 -9999 -9999 -9999 -9999 -9999 -9999 -9999 -9999 -9999 -9999 -9999 -9999 -9999 -9999 -9999 -9999 -9999 -9999 -9999 -9999 -9999 -9999 -9999 -9999 -9999 -9999 -9999 -9999 -9999 -9999 -9999 -9999 -9999 -9999 -9999 -9999 -9999 -9999 -9999 -9999 -9999 -9999 -9999 -9999 -9999 -9999 -9999 -9999 -9999 -9999 -9999 -9999 -9999 -9999 -9999 -9999 -9999 -9999 -9999 -9999 -9999 -9999 -9999
-9999 -9999 -9999 -9999 -9999 -9999 -9999 -9999 -9999 -9999 -9999 -9999 -9999 -9999 -9999 -9999 -9999 -9999 -9999 -9999 -9999 -9999 -9999 -9999 -9999 -9999 -9999 -9999 -9999 -9999 -9999 -9999 -9999 -9999 -9999 -9999 -9999 -9999 -9999 -9999 -9999 -9999 -176 -167 -179 -187 -189 -185 -9999 -9999 -9999 -9999 -9999 -186 -184 -181 -179 -179 -178 -136 -128 -162 -176 -171 -151 -124 -98 -76 -57 -40 -24 -18 -12 0 12 22 34 40 56 66 77 86 85 84 89 87 94 99 99 98 102 105 109 115 121 125 128 131 134 142 147 149 149 149 151 154 153 155 164 161 159 165 172 185 198 233 249 241 283 321 317 314 316 325 335 341 336 327 322 324 336 335 328 317 303 294 286 287 289 303 325 343 353 361 367 373 382 400 423 449 487 549 582 636 689 715 711 690 662 651 645 640 645 659 684 697 707 722 740 755 778 800 828 853 878 901 915 939 954 976 1001 985 1135 1177 1168 1165 1153 1219 1182 1205 1227 1237 1251 1259 1254 1246 1323 1327 1319 1316 1319 1316 1324 1334 1335 1338 1320 1282 1247 1197 1129 1052 1095 1089 1052 976 946 980 996 894 951 818 839 799 751 705 622 553 491 453 430 407 387 371 355 336 324 309 290 271 259 227 206 196 186 184 176 168 156 149 150 144 142 148 148 147 144 135 133 125 129 120 103 106 80 -85 -9999 -9999 -9999 -9999 -9999 -9999 -9999 -9999 -9999 -9999 -9999 -176 -176 -37 -24 -53 -17 -21 -115 -164 -31 -93 -164 -164 -111 -164 -1 -2 6 7 18 44 46 43 53 67 73 78 80 82 80 78 85 94 102 93 95 91 85 80 83 82 78 79 80 79 77 74 71 70 71 72 75 79 88 89 81 79 77 77 76 75 74 71 67 66 64 60 54 53 19 -94 -176 -9999 -9999 -9999 -9999 -9999 -9999 -9999 -9999 -9999 -9999 -9999 -9999 -9999 -9999 -9999 -9999 -9999 -9999 -9999 -9999 -9999 -9999 -9999 -9999 -9999 -9999 -9999 -9999 -9999 -9999 -9999 -9999 -9999 -9999 -9999 -9999 -9999 -9999 -9999 -9999 -9999 -9999 -9999 -9999 -9999 -9999 -9999 -9999 -9999 -9999 -9999 -9999 -9999 -9999 -9999 -9999 -9999 -9999 -9999 -9999 -9999 -9999 -9999 -9999 -9999 -9999 -9999 -9999 -9999 -9999 -9999 -9999 -9999 -9999 -9999 -9999 -9999 -9999 -9999 -9999 -9999 -9999 -9999 -9999 -9999 -9999 -9999 -9999 -9999 -9999 -9999 -9999 -9999 -9999 -9999 -9999 -9999 -9999 -9999 -9999 -9999 -9999 -9999 -9999 -9999 -9999 -9999 -9999 -9999 -9999 -9999 -9999 -9999 -9999 -9999 -9999 -9999 -9999 -9999 -9999 -9999 -9999 -9999 -9999 -9999 -9999 -9999 -9999 -9999 -9999 -9999 -9999 -9999 -9999 -9999 -9999 -9999
-9999 -9999 -9999 -9999 -9999 -9999 -9999 -9999 -9999 -9999 -9999 -9999 -9999 -9999 -9999 -9999 -9999 -9999 -9999 -9999 -9999 -9999 -9999 -9999 -9999 -9999 -9999 -9999 -9999 -9999 -9999 -9999 -9999 -9999 -9999 -9999 -9999 -9999 -9999 -9999 -9999 -9999 -9999 -9999 -9999 -190 -189 -179 -9999 -9999 -9999 -9999 -9999 -185 -185 -184 -183 -181 -175 -150 -142 -171 -181 -181 -171 -151 -128 -105 -83 -62 -43 -30 -16 -1 6 20 31 32 44 51 65 79 98 101 104 95 102 102 101 99 105 105 110 116 123 129 132 135 141 147 152 156 156 156 158 163 160 155 166 168 163 163 168 180 188 211 232 244 277 312 324 322 318 323 330 341 336 329 324 332 340 339 331 320 306 298 292 291 294 307 327 340 351 363 372 371 387 407 434 464 504 558 604 650 691 716 721 703 679 663 654 652 659 678 699 717 733 745 765 777 792 817 850 879 899 917 936 963 979 975 924 1142 1197 1183 1185 1186 1190 1222 1208 1218 1234 1245 1247 1255 1269 1274 1311 1322 1334 1339 1342 1338 1333 1336 1337 1328 1293 1250 1207 1172 1122 1066 1067 1042 1025 967 915 909 973 972 903 838 815 762 694 623 548 508 463 429 406 387 367 355 335 316 307 294 260 222 193 224 207 191 179 174 167 159 150 145 143 141 144 146 143 138 131 125 122 118 122 126 115 97 16 -176 -9999 -9999 -9999 -9999 -9999 -9999 -9999 -9999 -9999 -9999 -9999 -9999 -9999 -170 -112 -164 -86 -164 -189 -200 -164 -169 -189 -180 -147 -141 -63 -75 -20 1 0 8 13 10 25 45 54 62 68 73 72 71 77 86 97 90 91 88 82 80 80 80 76 75 76 75 73 71 70 68 66 70 74 81 88 85 78 78 77 74 71 68 69 66 63 62 58 54 47 43 0 -176 -9999 -9999 -9999 -9999 -9999 -9999 -9999 -9999 -9999 -9999 -9999 -9999 -9999 -9999 -9999 -9999 -9999 -9999 -9999 -9999 -9999 -9999 -9999 -9999 -9999 -9999 -9999 -9999 -9999 -9999 -9999 -9999 -9999 -9999 -9999 -9999 -9999 -9999 -9999 -9999 -9999 -9999 -9999 -9999 -9999 -9999 -9999 -9999 -9999 -9999 -9999 -9999 -9999 -9999 -9999 -9999 -9999 -9999 -9999 -9999 -9999 -9999 -9999 -9999 -9999 -9999 -9999 -9999 -9999 -9999 -9999 -9999 -9999 -9999 -9999 -9999 -9999 -9999 -9999 -9999 -9999 -9999 -9999 -9999 -9999 -9999 -9999 -9999 -9999 -9999 -9999 -9999 -9999 -9999 -9999 -9999 -9999 -9999 -9999 -9999 -9999 -9999 -9999 -9999 -9999 -9999 -9999 -9999 -9999 -9999 -9999 -9999 -9999 -9999 -9999 -9999 -9999 -9999 -9999 -9999 -9999 -9999 -9999 -9999 -9999 -9999 -9999 -9999 -9999 -9999 -9999 -9999 -9999 -9999 -9999 -9999 -9999 -9999
-9999 -9999 -9999 -9999 -9999 -9999 -9999 -9999 -9999 -9999 -9999 -9999 -9999 -9999 -9999 -9999 -9999 -9999 -9999 -9999 -9999 -9999 -9999 -9999 -9999 -9999 -9999 -9999 -9999 -9999 -9999 -9999 -9999 -9999 -9999 -9999 -9999 -9999 -9999 -9999 -9999 -9999 -9999 -9999 -9999 -9999 -9999 -9999 -9999 -9999 -9999 -9999 -9999 -183 -185 -186 -186 -185 -178 -162 -155 -171 -181 -185 -182 -172 -153 -132 -109 -87 -66 -45 -23 -1 2 10 23 31 39 44 53 59 75 88 100 108 112 100 98 105 106 107 111 117 124 132 134 138 143 148 154 159 161 160 161 165 167 168 169 166 165 167 171 178 182 193 221 242 271 300 318 328 321 324 331 342 337 338 342 346 345 343 335 324 308 304 298 296 296 307 319 333 347 367 384 373 395 412 448 483 544 663 655 676 702 722 726 712 694 673 663 664 671 697 713 735 757 763 792 797 805 833 873 904 918 930 954 998 1040 1059 1031 1156 1199 1194 1192 1206 1215 1226 1225 1232 1245 1260 1254 1243 1274 1291 1308 1305 1314 1317 1327 1347 1339 1338 1335 1299 1256 1206 1144 1086 1104 1065 1055 976 967 968 897 851 917 882 815 833 787 714 631 549 473 477 436 401 383 369 350 344 316 294 289 283 236 198 193 202 196 180 167 164 157 150 143 140 137 137 144 138 134 128 119 115 114 109 112 123 122 110 29 -176 -9999 -9999 -9999 -9999 -9999 -9999 -9999 -9999 -9999 -9999 -9999 -9999 -9999 -190 -168 -182 -156 -189 -200 -200 -191 -188 -187 -170 -140 -115 -87 -143 -164 -46 -13 3 7 4 4 15 28 42 53 63 65 65 70 77 88 90 90 82 77 71 74 73 71 72 73 72 70 69 69 68 66 69 74 81 87 81 72 74 68 63 59 47 59 56 53 53 43 34 6 0 -176 -9999 -9999 -9999 -9999 -9999 -9999 -9999 -9999 -9999 -9999 -9999 -9999 -9999 -9999 -9999 -9999 -9999 -9999 -9999 -9999 -9999 -9999 -9999 -9999 -9999 -9999 -9999 -9999 -9999 -9999 -9999 -9999 -9999 -9999 -9999 -9999 -9999 -9999 -9999 -9999 -9999 -9999 -9999 -9999 -9999 -9999 -9999 -9999 -9999 -9999 -9999 -9999 -9999 -9999 -9999 -9999 -9999 -9999 -9999 -9999 -9999 -9999 -9999 -9999 -9999 -9999 -9999 -9999 -9999 -9999 -9999 -9999 -9999 -9999 -9999 -9999 -9999 -9999 -9999 -9999 -9999 -9999 -9999 -9999 -9999 -9999 -9999 -9999 -9999 -9999 -9999 -9999 -9999 -9999 -9999 -9999 -9999 -9999 -9999 -9999 -9999 -9999 -9999 -9999 -9999 -9999 -9999 -9999 -9999 -9999 -9999 -9999 -9999 -9999 -9999 -9999 -9999 -9999 -9999 -9999 -9999 -9999 -9999 -9999 -9999 -9999 -9999 -9999 -9999 -9999 -9999 -9999 -9999 -9999 -9999 -9999 -9999 -9999 -9999
-9999 -9999 -9999 -9999 -9999 -9999 -9999 -9999 -9999 -9999 -9999 -9999 -9999 -9999 -9999 -9999 -9999 -9999 -9999 -9999 -9999 -9999 -9999 -9999 -9999 -9999 -9999 -9999 -9999 -9999 -9999 -9999 -9999 -9999 -9999 -9999 -9999 -9999 -9999 -9999 -9999 -9999 -9999 -9999 -9999 -9999 -9999 -9999 -9999 -9999 -9999 -9999 -9999 -186 -187 -9999 -9999 -9999 -184 -173 -168 -175 -182 -186 -187 -185 -173 -155 -134 -113 -91 -68 -41 -16 -5 3 14 25 37 42 52 52 57 68 83 91 106 119 102 110 109 112 116 120 127 138 137 142 147 151 157 163 164 163 161 166 171 173 173 172 171 172 178 182 187 197 219 241 264 288 306 322 332 333 338 343 344 344 347 348 349 348 341 331 319 311 304 304 300 307 319 334 349 369 391 375 398 422 455 491 557 658 682 699 719 732 733 718 701 684 676 681 694 710 727 747 767 780 799 816 836 865 900 923 933 944 972 1011 1042 924 1162 1206 1207 1206 1201 1209 1225 1235 1233 1242 1255 1269 1267 1268 1285 1301 1312 1319 1312 1320 1339 1351 1349 1346 1342 1287 1242 1185 1138 1077 1074 1039 1005 955 924 921 915 888 880 848 811 776 713 643 569 504 455 442 426 375 364 350 329 322 305 278 262 239 193 183 187 194 189 174 163 156 151 141 134 130 132 138 143 139 135 128 121 117 112 108 112 121 114 88 -28 -9999 -9999 -9999 -9999 -9999 -9999 -9999 -9999 -9999 -9999 -9999 -9999 -9999 -9999 -193 -186 -188 -182 -191 -195 -194 -189 -187 -179 -160 -134 -117 -135 -179 -192 -176 -19 -8 4 0 -7 -4 2 15 30 44 52 57 59 68 76 81 83 79 77 72 69 67 66 68 71 68 65 66 67 66 64 67 71 79 84 70 52 56 45 42 31 10 39 34 28 20 17 2 -102 -176 -9999 -9999 -9999 -9999 -9999 -9999 -9999 -9999 -9999 -9999 -9999 -9999 -9999 -9999 -9999 -9999 -9999 -9999 -9999 -9999 -9999 -9999 -9999 -9999 -9999 -9999 -9999 -9999 -9999 -9999 -9999 -9999 -9999 -9999 -9999 -9999 -9999 -9999 -9999 -9999 -9999 -9999 -9999 -9999 -9999 -9999 -9999 -9999 -9999 -9999 -9999 -9999 -9999 -9999 -9999 -9999 -9999 -9999 -9999 -9999 -9999 -9999 -9999 -9999 -9999 -9999 -9999 -9999 -9999 -9999 -9999 -9999 -9999 -9999 -9999 -9999 -9999 -9999 -9999 -9999 -9999 -9999 -9999 -9999 -9999 -9999 -9999 -9999 -9999 -9999 -9999 -9999 -9999 -9999 -9999 -9999 -9999 -9999 -9999 -9999 -9999 -9999 -9999 -9999 -9999 -9999 -9999 -9999 -9999 -9999 -9999 -9999 -9999 -9999 -9999 -9999 -9999 -9999 -9999 -9999 -9999 -9999 -9999 -9999 -9999 -9999 -9999 -9999 -9999 -9999 -9999 -9999 -9999 -9999 -9999 -9999 -9999 -9999 -9999 -9999
-9999 -9999 -9999 -9999 -9999 -9999 -9999 -9999 -9999 -9999 -9999 -9999 -9999 -9999 -9999 -9999 -9999 -9999 -9999 -9999 -9999 -9999 -9999 -9999 -9999 -9999 -9999 -9999 -9999 -9999 -9999 -9999 -9999 -9999 -9999 -9999 -9999 -9999 -9999 -9999 -9999 -9999 -9999 -9999 -9999 -9999 -9999 -9999 -9999 -9999 -9999 -9999 -187 -187 -9999 -9999 -9999 -9999 -186 -181 -179 -181 -185 -187 -9999 -9999 -185 -173 -156 -138 -119 -97 -69 -40 -23 -6 1 20 32 39 47 48 48 56 65 70 87 104 125 130 123 127 129 131 137 144 147 151 157 161 168 166 166 165 165 170 177 189 181 180 176 177 181 184 189 203 222 242 262 279 297 319 331 336 339 341 340 346 350 349 354 355 347 341 334 322 311 317 308 309 321 335 348 363 387 402 411 435 466 494 563 657 693 711 733 743 738 722 708 694 689 699 716 724 738 757 778 795 810 837 869 898 930 941 939 944 979 1047 924 1140 1202 1218 1214 1209 1203 1212 1231 1237 1235 1249 1261 1271 1277 1286 1295 1299 1312 1327 1305 1323 1351 1341 1342 1345 1295 1241 1197 1125 1034 1035 1056 1025 982 938 910 883 903 906 856 830 812 720 631 571 511 464 432 399 375 379 358 337 305 302 295 259 239 219 191 181 182 178 183 168 160 148 147 133 125 123 129 139 142 136 135 128 124 120 112 106 109 120 103 93 -62 -9999 -9999 -9999 -9999 -9999 -9999 -9999 -9999 -9999 -9999 -9999 -9999 -9999 -9999 -9999 -9999 -188 -187 -188 -188 -187 -9999 -185 -178 -162 -144 -152 -171 -176 -9999 -9999 -124 -43 -4 -17 -33 -29 -19 2 1 13 29 41 38 47 61 72 75 74 75 63 61 60 60 62 64 64 63 62 61 61 61 62 61 65 67 47 10 17 10 24 23 20 17 9 7 -4 -4 -4 -176 -9999 -9999 -9999 -9999 -9999 -9999 -9999 -9999 -9999 -9999 -9999 -9999 -9999 -9999 -9999 -9999 -9999 -9999 -9999 -9999 -9999 -9999 -9999 -9999 -9999 -9999 -9999 -9999 -9999 -9999 -9999 -9999 -9999 -9999 -9999 -9999 -9999 -9999 -9999 -9999 -9999 -9999 -9999 -9999 -9999 -9999 -9999 -9999 -9999 -9999 -9999 -9999 -9999 -9999 -9999 -9999 -9999 -9999 -9999 -9999 -9999 -9999 -9999 -9999 -9999 -9999 -9999 -9999 -9999 -9999 -9999 -9999 -9999 -9999 -9999 -9999 -9999 -9999 -9999 -9999 -9999 -9999 -9999 -9999 -9999 -9999 -9999 -9999 -9999 -9999 -9999 -9999 -9999 -9999 -9999 -9999 -9999 -9999 -9999 -9999 -9999 -9999 -9999 -9999 -9999 -9999 -9999 -9999 -9999 -9999 -9999 -9999 -9999 -9999 -9999 -9999 -9999 -9999 -9999 -9999 -9999 -9999 -9999 -9999 -9999 -9999 -9999 -9999 -9999 -9999 -9999 -9999 -9999 -9999 -9999 -9999 -9999 -9999 -9999 -9999 -9999
-9999 -9999 -9999 -9999 -9999 -9999 -9999 -9999 -9999 -9999 -9999 -9999 -9999 -9999 -9999 -9999 -9999 -9999 -9999 -9999 -9999 -9999 -9999 -9999 -9999 -9999 -9999 -9999 -9999 -9999 -9999 -9999 -9999 -9999 -9999 -9999 -9999 -9999 -9999 -9999 -9999 -9999 -9999 -9999 -9999 -9999 -9999 -9999 -9999 -9999 -9999 -9999 -9999 -9999 -9999 -9999 -9999 -9999 -9999 -186 -185 -185 -186 -9999 -9999 -9999 -187 -182 -173 -161 -148 -133 -109 -86 -66 -40 -47 -17 -10 2 43 44 43 49 55 61 69 79 99 117 138 139 140 141 146 153 156 161 168 167 168 165 166 166 169 171 176 190 183 182 176 178 179 181 186 206 226 241 256 275 299 327 334 329 332 338 342 350 360 361 362 357 350 351 353 344 332 317 306 309 319 332 347 362 373 375 405 445 490 516 558 633 695 723 740 751 747 733 721 712 706 714 730 739 751 769 794 820 837 863 905 928 950 954 920 924 924 924 1077 1185 1219 1226 1221 1215 1216 1225 1237 1245 1251 1263 1269 1279 1289 1300 1308 1311 1321 1324 1334 1339 1341 1330 1336 1296 1265 1233 1159 1114 1091 1070 1029 994 951 930 935 933 889 846 818 787 759 659 568 517 472 434 403 374 362 360 345 325 298 285 264 233 210 192 186 179 175 168 171 174 158 144 138 129 125 132 138 141 137 131 127 122 119 116 109 103 102 106 105 81 -25 -9999 -9999 -9999 -9999 -9999 -9999 -9999 -9999 -9999 -9999 -9999 -9999 -9999 -9999 -9999 -9999 -186 -186 -9999 -9999 -9999 -186 -187 -186 -182 -174 -180 -9999 -124 -9999 -9999 -9999 -176 -56 -76 -96 -94 -73 -25 -46 -21 -2 12 10 31 47 62 67 67 66 60 55 54 54 55 59 59 59 58 57 55 56 55 51 42 29 6 -11 -10 -8 3 9 7 7 4 -4 -58 -113 -176 -9999 -9999 -9999 -9999 -9999 -9999 -9999 -9999 -9999 -9999 -9999 -9999 -9999 -9999 -9999 -9999 -9999 -9999 -9999 -9999 -9999 -9999 -9999 -9999 -9999 -9999 -9999 -9999 -9999 -9999 -9999 -9999 -9999 -9999 -9999 -9999 -9999 -9999 -9999 -9999 -9999 -9999 -9999 -9999 -9999 -9999 -9999 -9999 -9999 -9999 -9999 -9999 -9999 -9999 -9999 -9999 -9999 -9999 -9999 -9999 -9999 -9999 -9999 -9999 -9999 -9999 -9999 -9999 -9999 -9999 -9999 -9999 -9999 -9999 -9999 -9999 -9999 -9999 -9999 -9999 -9999 -9999 -9999 -9999 -9999 -9999 -9999 -9999 -9999 -9999 -9999 -9999 -9999 -9999 -9999 -9999 -9999 -9999 -9999 -9999 -9999 -9999 -9999 -9999 -9999 -9999 -9999 -9999 -9999 -9999 -9999 -9999 -9999 -9999 -9999 -9999 -9999 -9999 -9999 -9999 -9999 -9999 -9999 -9999 -9999 -9999 -9999 -9999 -9999 -9999 -9999 -9999 -9999 -9999 -9999 -9999 -9999 -9999 -9999 -9999 -9999 -9999
-9999 -9999 -9999 -9999 -9999 -9999 -9999 -9999 -9999 -9999 -9999 -9999 -9999 -9999 -9999 -9999 -9999 -9999 -9999 -9999 -9999 -9999 -9999 -9999 -9999 -9999 -9999 -9999 -9999 -9999 -9999 -9999 -9999 -9999 -9999 -9999 -9999 -9999 -9999 -9999 -9999 -9999 -9999 -9999 -9999 -9999 -9999 -9999 -9999 -9999 -9999 -9999 -9999 -9999 -9999 -9999 -9999 -9999 -9999 -9999 -9999 -186 -186 -9999 -9999 -9999 -9999 -186 -182 -177 -173 -168 -151 -142 -150 -176 -176 -176 -176 -176 -10 25 30 35 43 48 56 64 80 94 109 113 130 143 154 162 165 170 178 175 173 168 168 167 170 174 179 188 191 189 180 179 178 179 187 212 227 238 251 273 305 352 356 336 331 338 345 355 370 370 364 356 347 357 362 320 310 302 304 310 318 329 349 369 381 388 411 455 507 550 611 635 711 735 745 760 758 743 735 731 720 727 746 755 764 783 812 850 866 882 937 945 960 975 924 992 1047 1096 1169 1215 1229 1239 1227 1219 1227 1241 1244 1254 1257 1267 1269 1279 1295 1309 1311 1313 1318 1328 1335 1335 1333 1334 1306 1247 1230 1223 1109 1066 1035 1036 978 960 918 897 892 870 851 823 796 770 711 580 493 463 437 409 384 371 357 344 329 312 286 270 236 207 189 183 186 176 170 156 152 168 147 137 131 124 121 140 140 127 126 124 119 116 112 110 103 96 89 85 88 92 59 -90 -9999 -9999 -9999 -9999 -9999 -9999 -9999 -9999 -9999 -9999 -9999 -9999 -9999 -9999 -9999 -9999 -9999 -9999 -9999 -9999 -9999 -187 -9999 -9999 -182 -168 -9999 -9999 -9999 -9999 -9999 -9999 -176 -176 -178 -178 -176 -164 -164 -109 -55 -10 0 15 30 50 57 58 58 54 50 48 48 49 53 53 54 54 52 51 51 45 30 15 0 -17 -29 -31 -28 -19 -14 -19 -18 -31 -67 -124 -176 -9999 -9999 -9999 -9999 -9999 -9999 -9999 -9999 -9999 -9999 -9999 -9999 -9999 -9999 -9999 -9999 -9999 -9999 -9999 -9999 -9999 -9999 -9999 -9999 -9999 -9999 -9999 -9999 -9999 -9999 -9999 -9999 -9999 -9999 -9999 -9999 -9999 -9999 -9999 -9999 -9999 -9999 -9999 -9999 -9999 -9999 -9999 -9999 -9999 -9999 -9999 -9999 -9999 -9999 -9999 -9999 -9999 -9999 -9999 -9999 -9999 -9999 -9999 -9999 -9999 -9999 -9999 -9999 -9999 -9999 -9999 -9999 -9999 -9999 -9999 -9999 -9999 -9999 -9999 -9999 -9999 -9999 -9999 -9999 -9999 -9999 -9999 -9999 -9999 -9999 -9999 -9999 -9999 -9999 -9999 -9999 -9999 -9999 -9999 -9999 -9999 -9999 -9999 -9999 -9999 -9999 -9999 -9999 -9999 -9999 -9999 -9999 -9999 -9999 -9999 -9999 -9999 -9999 -9999 -9999 -9999 -9999 -9999 -9999 -9999 -9999 -9999 -9999 -9999 -9999 -9999 -9999 -9999 -9999 -9999 -9999 -9999 -9999 -9999 -9999 -9999 -9999 -9999
-9999 -9999 -9999 -9999 -9999 -9999 -9999 -9999 -9999 -9999 -9999 -9999 -9999 -9999 -9999 -9999 -9999 -9999 -9999 -9999 -9999 -9999 -9999 -9999 -9999 -9999 -9999 -9999 -9999 -9999 -9999 -9999 -9999 -9999 -9999 -9999 -9999 -9999 -9999 -9999 -9999 -9999 -9999 -9999 -9999 -9999 -9999 -9999 -9999 -9999 -9999 -9999 -9999 -9999 -9999 -9999 -9999 -9999 -9999 -9999 -9999 -9999 -9999 -9999 -9999 -9999 -9999 -9999 -186 -185 -183 -181 -175 -174 -183 -9999 -9999 -9999 -9999 -9999 -176 -25 10 10 27 40 47 50 63 70 82 93 111 130 165 169 172 182 190 184 183 176 174 172 174 178 181 184 188 193 180 180 178 181 192 222 227 237 244 268 300 381 381 344 335 343 349 356 382 377 366 356 338 362 376 337 310 292 305 311 320 333 350 373 402 410 431 467 516 558 616 657 716 747 762 772 765 753 743 740 737 744 761 774 786 806 834 869 895 906 931 934 924 924 1032 1073 1128 1156 1207 1237 1246 1240 1228 1228 1238 1249 1257 1267 1268 1269 1220 1262 1296 1309 1308 1309 1316 1330 1336 1328 1318 1318 1281 1223 1142 1082 1124 1062 1042 1011 971 924 894 876 850 844 831 803 749 673 558 461 437 425 402 375 368 359 345 324 306 289 273 255 216 187 178 173 177 172 166 156 148 149 140 132 128 120 121 131 131 126 125 122 118 115 110 103 95 88 84 80 80 69 10 -176 -9999 -9999 -9999 -9999 -9999 -9999 -9999 -9999 -9999 -9999 -9999 -9999 -9999 -9999 -9999 -9999 -9999 -9999 -9999 -9999 -9999 -186 -9999 -9999 -9999 -9999 -9999 -9999 -9999 -9999 -9999 -9999 -9999 -9999 -9999 -9999 -9999 -192 -193 -164 -107 -37 -19 -3 7 34 46 54 51 47 46 41 42 43 45 47 47 47 46 43 42 25 4 -10 -24 -39 -50 -54 -53 -48 -43 -61 -80 -107 -137 -176 -9999 -9999 -9999 -9999 -9999 -9999 -9999 -9999 -9999 -9999 -9999 -9999 -9999 -9999 -9999 -9999 -9999 -9999 -9999 -9999 -9999 -9999 -9999 -9999 -9999 -9999 -9999 -9999 -9999 -9999 -9999 -9999 -9999 -9999 -9999 -9999 -9999 -9999 -9999 -9999 -9999 -9999 -9999 -9999 -9999 -9999 -9999 -9999 -9999 -9999 -9999 -9999 -9999 -9999 -9999 -9999 -9999 -9999 -9999 -9999 -9999 -9999 -9999 -9999 -9999 -9999 -9999 -9999 -9999 -9999 -9999 -9999 -9999 -9999 -9999 -9999 -9999 -9999 -9999 -9999 -9999 -9999 -9999 -9999 -9999 -9999 -9999 -9999 -9999 -9999 -9999 -9999 -9999 -9999 -9999 -9999 -9999 -9999 -9999 -9999 -9999 -9999 -9999 -9999 -9999 -9999 -9999 -9999 -9999 -9999 -9999 -9999 -9999 -9999 -9999 -9999 -9999 -9999 -9999 -9999 -9999 -9999 -9999 -9999 -9999 -9999 -9999 -9999 -9999 -9999 -9999 -9999 -9999 -9999 -9999 -9999 -9999 -9999 -9999 -9999 -9999 -9999 -9999 -9999
-9999 -9999 -9999 -9999 -9999 -9999 -9999 -9999 -9999 -9999 -9999 -9999 -9999 -9999 -9999 -9999 -9999 -9999 -9999 -9999 -9999 -9999 -9999 -9999 -9999 -9999 -9999 -9999 -9999 -9999 -9999 -9999 -9999 -9999 -9999 -9999 -9999 -9999 -9999 -9999 -9999 -9999 -9999 -9999 -9999 -9999 -9999 -9999 -9999 -9999 -9999 -9999 -9999 -9999 -9999 -9999 -9999 -9999 -9999 -9999 -9999 -9999 -9999 -9999 -9999 -9999 -9999 -9999 -9999 -9999 -187 -186 -185 -186 -9999 -9999 -9999 -9999 -9999 -9999 -9999 -176 -40 -31 -10 31 37 39 47 52 63 75 96 112 131 145 170 190 214 199 203 192 190 188 189 187 186 188 195 187 182 183 183 185 193 203 221 239 248 264 290 333 365 382 369 355 353 359 376 382 375 365 359 373 378 346 318 302 303 311 325 338 354 386 432 429 449 479 530 574 623 671 728 760 779 784 773 761 750 749 750 759 780 795 809 828 854 886 925 923 938 952 967 1001 1063 1095 1159 1107 1210 1247 1251 1238 1226 1237 1248 1256 1264 1266 1274 1286 1278 1293 1311 1302 1310 1313 1316 1330 1333 1325 1325 1298 1241 1163 1082 1061 1074 1034 1009 969 936 907 885 888 824 844 818 782 702 611 508 453 430 416 387 367 361 345 329 298 281 257 235 238 200 178 174 164 169 167 162 157 145 135 136 129 129 117 119 125 122 123 121 123 115 114 108 96 88 80 79 73 69 69 68 -50 -9999 -9999 -9999 -9999 -9999 -9999 -9999 -9999 -9999 -9999 -9999 -9999 -9999 -9999 -9999 -9999 -9999 -9999 -9999 -9999 -9999 -9999 -9999 -9999 -9999 -9999 -9999 -9999 -9999 -9999 -9999 -9999 -9999 -9999 -9999 -9999 -9999 -9999 -195 -188 -164 -109 -68 -31 -15 8 28 43 40 36 36 35 37 39 41 41 38 39 38 35 26 3 -15 -31 -47 -62 -74 -82 -86 -87 -94 -115 -144 -176 -185 -9999 -9999 -9999 -9999 -9999 -9999 -9999 -9999 -9999 -9999 -9999 -9999 -9999 -9999 -9999 -9999 -9999 -9999 -9999 -9999 -9999 -9999 -9999 -9999 -9999 -9999 -9999 -9999 -9999 -9999 -9999 -9999 -9999 -9999 -9999 -9999 -9999 -9999 -9999 -9999 -9999 -9999 -9999 -9999 -9999 -9999 -9999 -9999 -9999 -9999 -9999 -9999 -9999 -9999 -9999 -9999 -9999 -9999 -9999 -9999 -9999 -9999 -9999 -9999 -9999 -9999 -9999 -9999 -9999 -9999 -9999 -9999 -9999 -9999 -9999 -9999 -9999 -9999 -9999 -9999 -9999 -9999 -9999 -9999 -9999 -9999 -9999 -9999 -9999 -9999 -9999 -9999 -9999 -9999 -9999 -9999 -9999 -9999 -9999 -9999 -9999 -9999 -9999 -9999 -9999 -9999 -9999 -9999 -9999 -9999 -9999 -9999 -9999 -9999 -9999 -9999 -9999 -9999 -9999 -9999 -9999 -9999 -9999 -9999 -9999 -9999 -9999 -9999 -9999 -9999 -9999 -9999 -9999 -9999 -9999 -9999 -9999 -9999 -9999 -9999 -9999 -9999 -9999 -9999 -9999
-9999 -9999 -9999 -9999 -9999 -9999 -9999 -9999 -9999 -9999 -9999 -9999 -9999 -9999 -9999 -9999 -9999 -9999 -9999 -9999 -9999 -9999 -9999 -9999 -9999 -9999 -9999 -9999 -9999 -9999 -9999 -9999 -9999 -9999 -9999 -9999 -9999 -9999 -9999 -9999 -9999 -9999 -9999 -9999 -9999 -9999 -9999 -9999 -9999 -9999 -9999 -9999 -9999 -9999 -9999 -9999 -9999 -9999 -9999 -9999 -9999 -9999 -9999 -9999 -9999 -9999 -9999 -9999 -9999 -9999 -9999 -9999 -9999 -9999 -9999 -9999 -9999 -9999 -9999 -9999 -9999 -9999 -176 -176 -176 -8 4 18 27 31 42 59 76 99 105 129 150 166 203 281 262 216 208 193 194 193 195 197 191 183 184 191 193 194 197 198 213 235 252 263 276 283 327 360 383 360 356 361 369 380 382 372 372 380 372 347 324 313 311 315 330 344 354 373 413 437 468 496 529 558 630 685 734 771 792 794 785 772 761 759 763 776 798 818 832 847 870 898 924 944 963 984 1012 1047 1089 1103 1151 1206 1238 1240 1255 1245 1244 1254 1257 1259 1266 1273 1291 1301 1304 1313 1316 1312 1311 1320 1329 1327 1321 1317 1281 1264 1202 1118 1063 1045 1044 1010 971 939 904 897 877 873 846 816 767 709 631 546 474 437 417 402 375 357 340 317 297 273 260 244 211 193 205 185 172 160 159 157 155 150 142 136 134 128 127 122 120 121 121 122 123 122 114 109 102 95 85 78 73 70 66 62 52 -23 -9999 -9999 -9999 -9999 -9999 -9999 -9999 -9999 -9999 -9999 -9999 -9999 -9999 -9999 -9999 -9999 -9999 -9999 -9999 -9999 -9999 -9999 -9999 -9999 -9999 -9999 -9999 -9999 -9999 -9999 -9999 -9999 -9999 -9999 -9999 -9999 -9999 -188 -190 -192 -186 -164 -126 -87 -55 -15 4 18 21 19 24 27 31 35 36 35 31 29 27 22 5 -13 -33 -51 -69 -85 -100 -112 -120 -127 -138 -158 -181 -196 -9999 -9999 -9999 -9999 -9999 -9999 -9999 -9999 -9999 -9999 -9999 -9999 -9999 -9999 -9999 -9999 -9999 -9999 -9999 -9999 -9999 -9999 -9999 -9999 -9999 -9999 -9999 -9999 -9999 -9999 -9999 -9999 -9999 -9999 -9999 -9999 -9999 -9999 -9999 -9999 -9999 -9999 -9999 -9999 -9999 -9999 -9999 -9999 -9999 -9999 -9999 -9999 -9999 -9999 -9999 -9999 -9999 -9999 -9999 -9999 -9999 -9999 -9999 -9999 -9999 -9999 -9999 -9999 -9999 -9999 -9999 -9999 -9999 -9999 -9999 -9999 -9999 -9999 -9999 -9999 -9999 -9999 -9999 -9999 -9999 -9999 -9999 -9999 -9999 -9999 -9999 -9999 -9999 -9999 -9999 -9999 -9999 -9999 -9999 -9999 -9999 -9999 -9999 -9999 -9999 -9999 -9999 -9999 -9999 -9999 -9999 -9999 -9999 -9999 -9999 -9999 -9999 -9999 -9999 -9999 -9999 -9999 -9999 -9999 -9999 -9999 -9999 -9999 -9999 -9999 -9999 -9999 -9999 -9999 -9999 -9999 -9999 -9999 -9999 -9999 -9999 -9999 -9999 -9999 -9999 -9999
-9999 -9999 -9999 -9999 -9999 -9999 -9999 -9999 -9999 -9999 -9999 -9999 -9999 -9999 -9999 -9999 -9999 -9999 -9999 -9999 -9999 -9999 -9999 -9999 -9999 -9999 -9999 -9999 -9999 -9999 -9999 -9999 -9999 -9999 -9999 -9999 -9999 -9999 -9999 -9999 -9999 -9999 -9999 -9999 -9999 -9999 -9999 -9999 -9999 -9999 -9999 -9999 -9999 -9999 -9999 -9999 -9999 -9999 -9999 -9999 -9999 -9999 -9999 -9999 -9999 -9999 -9999 -9999 -9999 -9999 -9999 -9999 -9999 -9999 -9999 -9999 -9999 -9999 -9999 -9999 -9999 -9999 -9999 -9999 -9999 -9999 -87 -15 -4 -6 -2 4 -3 38 10 102 102 125 124 193 412 273 246 222 201 195 199 197 192 195 198 200 201 201 208 215 223 245 260 275 292 310 330 352 377 383 369 374 378 383 384 378 378 383 372 353 334 324 323 320 327 341 352 368 402 441 491 519 557 626 673 709 745 785 806 805 798 784 773 772 776 791 817 845 856 866 892 924 964 979 995 1016 1051 1081 1121 1092 1119 1228 1257 1217 1244 1262 1262 1264 1265 1264 1272 1292 1305 1312 1313 1307 1315 1322 1315 1325 1326 1326 1326 1306 1220 1242 1175 1082 1050 1032 1019 984 932 909 869 888 860 851 830 770 702 630 564 494 439 417 398 375 376 349 319 288 268 246 242 240 198 182 177 176 168 155 150 147 148 145 139 136 135 125 127 128 123 121 122 120 120 122 110 103 95 89 82 77 69 70 66 65 55 50 -84 -9999 -9999 -9999 -9999 -9999 -9999 -9999 -9999 -9999 -9999 -9999 -9999 -9999 -9999 -9999 -9999 -9999 -9999 -9999 -9999 -9999 -9999 -9999 -9999 -9999 -9999 -9999 -9999 -9999 -9999 -9999 -9999 -9999 -9999 -9999 -190 -188 -188 -189 -9999 -183 -168 -139 -101 -24 -9 4 10 8 15 20 21 24 27 28 19 17 16 12 -3 -27 -50 -71 -91 -109 -126 -141 -153 -161 -169 -184 -194 -9999 -9999 -9999 -9999 -9999 -9999 -9999 -9999 -9999 -9999 -9999 -9999 -9999 -9999 -9999 -9999 -9999 -9999 -9999 -9999 -9999 -9999 -9999 -9999 -9999 -9999 -9999 -9999 -9999 -9999 -9999 -9999 -9999 -9999 -9999 -9999 -9999 -9999 -9999 -9999 -9999 -9999 -9999 -9999 -9999 -9999 -9999 -9999 -9999 -9999 -9999 -9999 -9999 -9999 -9999 -9999 -9999 -9999 -9999 -9999 -9999 -9999 -9999 -9999 -9999 -9999 -9999 -9999 -9999 -9999 -9999 -9999 -9999 -9999 -9999 -9999 -9999 -9999 -9999 -9999 -9999 -9999 -9999 -9999 -9999 -9999 -9999 -9999 -9999 -9999 -9999 -9999 -9999 -9999 -9999 -9999 -9999 -9999 -9999 -9999 -9999 -9999 -9999 -9999 -9999 -9999 -9999 -9999 -9999 -9999 -9999 -9999 -9999 -9999 -9999 -9999 -9999 -9999 -9999 -9999 -9999 -9999 -9999 -9999 -9999 -9999 -9999 -9999 -9999 -9999 -9999 -9999 -9999 -9999 -9999 -9999 -9999 -9999 -9999 -9999 -9999 -9999 -9999 -9999 -9999 -9999 -9999
-9999 -9999 -9999 -9999 -9999 -9999 -9999 -9999 -9999 -9999 -9999 -9999 -9999 -9999 -9999 -9999 -9999 -9999 -9999 -9999 -9999 -9999 -9999 -9999 -9999 -9999 -9999 -9999 -9999 -9999 -9999 -9999 -9999 -9999 -9999 -9999 -9999 -9999 -9999 -9999 -9999 -9999 -9999 -9999 -9999 -9999 -9999 -9999 -9999 -9999 -9999 -9999 -9999 -9999 -9999 -9999 -9999 -9999 -9999 -9999 -9999 -9999 -9999 -9999 -9999 -9999 -9999 -9999 -9999 -9999 -9999 -9999 -9999 -9999 -9999 -9999 -9999 -9999 -9999 -9999 -9999 -9999 -9999 -9999 -9999 -9999 -141 -90 -73 -75 -88 -119 -176 -176 -176 23 10 109 124 188 354 288 274 257 223 207 196 194 191 190 195 196 196 195 196 199 213 235 250 263 276 295 314 335 363 384 369 386 386 387 387 379 378 385 375 359 340 329 322 318 319 338 353 368 405 454 506 530 558 638 689 727 767 798 815 814 807 796 788 788 795 812 837 867 880 895 919 953 988 1004 1019 1043 1076 1111 1141 1110 1173 1244 1262 1243 1256 1267 1270 1272 1279 1280 1287 1299 1317 1327 1328 1327 1326 1324 1323 1327 1328 1326 1320 1293 1240 1177 1149 1084 1057 1042 1007 950 908 902 903 885 866 839 778 707 633 561 507 461 421 397 375 359 350 327 298 268 251 233 212 193 180 175 172 175 166 155 148 145 144 141 136 134 131 125 128 132 130 126 120 117 115 115 108 100 89 82 78 76 72 70 65 65 61 47 -44 -9999 -9999 -9999 -9999 -9999 -9999 -9999 -9999 -9999 -9999 -9999 -9999 -9999 -9999 -9999 -9999 -9999 -9999 -9999 -9999 -9999 -9999 -9999 -9999 -9999 -9999 -9999 -9999 -9999 -9999 -9999 -9999 -9999 -9999 -9999 -187 -9999 -9999 -9999 -9999 -188 -185 -178 -164 -40 -51 -31 -6 4 3 5 4 10 12 7 4 3 1 -3 -22 -46 -70 -93 -113 -132 -150 -167 -181 -185 -187 -9999 -9999 -9999 -9999 -9999 -9999 -9999 -9999 -9999 -9999 -9999 -9999 -9999 -9999 -9999 -9999 -9999 -9999 -9999 -9999 -9999 -9999 -9999 -9999 -9999 -9999 -9999 -9999 -9999 -9999 -9999 -9999 -9999 -9999 -9999 -9999 -9999 -9999 -9999 -9999 -9999 -9999 -9999 -9999 -9999 -9999 -9999 -9999 -9999 -9999 -9999 -9999 -9999 -9999 -9999 -9999 -9999 -9999 -9999 -9999 -9999 -9999 -9999 -9999 -9999 -9999 -9999 -9999 -9999 -9999 -9999 -9999 -9999 -9999 -9999 -9999 -9999 -9999 -9999 -9999 -9999 -9999 -9999 -9999 -9999 -9999 -9999 -9999 -9999 -9999 -9999 -9999 -9999 -9999 -9999 -9999 -9999 -9999 -9999 -9999 -9999 -9999 -9999 -9999 -9999 -9999 -9999 -9999 -9999 -9999 -9999 -9999 -9999 -9999 -9999 -9999 -9999 -9999 -9999 -9999 -9999 -9999 -9999 -9999 -9999 -9999 -9999 -9999 -9999 -9999 -9999 -9999 -9999 -9999 -9999 -9999 -9999 -9999 -9999 -9999 -9999 -9999 -9999 -9999 -9999 -9999 -9999 -9999 -9999
-9999 -9999 -9999 -9999 -9999 -9999 -9999 -9999 -9999 -9999 -9999 -9999 -9999 -9999 -9999 -9999 -9999 -9999 -9999 -9999 -9999 -9999 -9999 -9999 -9999 -9999 -9999 -9999 -9999 -9999 -9999 -9999 -9999 -9999 -9999 -9999 -9999 -9999 -9999 -9999 -9999 -9999 -9999 -9999 -9999 -9999 -9999 -9999 -9999 -9999 -9999 -9999 -9999 -9999 -9999 -9999 -9999 -9999 -9999 -9999 -9999 -9999 -9999 -9999 -9999 -9999 -9999 -9999 -9999 -9999 -9999 -9999 -9999 -9999 -9999 -9999 -9999 -9999 -9999 -9999 -9999 -9999 -9999 -9999 -9999 -9999 -9999 -151 -138 -139 -153 -179 -9999 -9999 -9999 -176 -102 5 43 87 273 154 213 269 255 233 215 200 198 200 201 202 202 201 201 200 221 238 249 259 270 282 297 320 352 378 385 385 387 389 389 375 375 387 379 364 348 334 324 319 323 342 357 370 410 464 528 551 587 661 702 738 786 810 824 823 816 807 801 802 812 828 850 885 898 919 953 982 1011 1024 1038 1063 1095 1136 1190 1119 1238 1269 1262 1244 1265 1273 1274 1278 1299 1292 1295 1307 1332 1329 1315 1313 1318 1319 1326 1325 1323 1314 1296 1267 1239 1082 1079 1064 1051 1028 998 933 882 872 851 864 858 789 698 631 562 481 456 434 402 386 369 346 325 303 278 248 239 225 194 181 174 172 167 174 166 157 149 146 144 141 133 136 133 125 133 139 137 132 118 114 110 110 104 98 82 74 68 65 71 69 63 63 61 49 0 -9999 -9999 -9999 -9999 -9999 -9999 -9999 -9999 -9999 -9999 -9999 -9999 -9999 -9999 -9999 -9999 -9999 -9999 -9999 -9999 -9999 -9999 -9999 -9999 -9999 -9999 -9999 -9999 -9999 -9999 -9999 -9999 -9999 -9999 -9999 -9999 -9999 -9999 -9999 -9999 -9999 -189 -190 -191 -164 -164 -109 -44 -34 -37 -17 -14 0 1 0 -6 0 -10 -26 -47 -71 -95 -117 -136 -153 -168 -183 -192 -9999 -9999 -9999 -9999 -9999 -9999 -9999 -9999 -9999 -9999 -9999 -9999 -9999 -9999 -9999 -9999 -9999 -9999 -9999 -9999 -9999 -9999 -9999 -9999 -9999 -9999 -9999 -9999 -9999 -9999 -9999 -9999 -9999 -9999 -9999 -9999 -9999 -9999 -9999 -9999 -9999 -9999 -9999 -9999 -9999 -9999 -9999 -9999 -9999 -9999 -9999 -9999 -9999 -9999 -9999 -9999 -9999 -9999 -9999 -9999 -9999 -9999 -9999 -9999 -9999 -9999 -9999 -9999 -9999 -9999 -9999 -9999 -9999 -9999 -9999 -9999 -9999 -9999 -9999 -9999 -9999 -9999 -9999 -9999 -9999 -9999 -9999 -9999 -9999 -9999 -9999 -9999 -9999 -9999 -9999 -9999 -9999 -9999 -9999 -9999 -9999 -9999 -9999 -9999 -9999 -9999 -9999 -9999 -9999 -9999 -9999 -9999 -9999 -9999 -9999 -9999 -9999 -9999 -9999 -9999 -9999 -9999 -9999 -9999 -9999 -9999 -9999 -9999 -9999 -9999 -9999 -9999 -9999 -9999 -9999 -9999 -9999 -9999 -9999 -9999 -9999 -9999 -9999 -9999 -9999 -9999 -9999 -9999 -9999 -9999 -9999
-9999 -9999 -9999 -9999 -9999 -9999 -9999 -9999 -9999 -9999 -9999 -9999 -9999 -9999 -9999 -9999 -9999 -9999 -9999 -9999 -9999 -9999 -9999 -9999 -9999 -9999 -9999 -9999 -9999 -9999 -9999 -9999 -9999 -9999 -9999 -9999 -9999 -9999 -9999 -9999 -9999 -9999 -9999 -9999 -9999 -9999 -9999 -9999 -9999 -9999 -9999 -9999 -9999 -9999 -9999 -9999 -9999 -9999 -9999 -9999 -9999 -9999 -9999 -9999 -9999 -9999 -9999 -9999 -9999 -9999 -9999 -9999 -9999 -9999 -9999 -9999 -9999 -9999 -9999 -9999 -9999 -9999 -9999 -9999 -9999 -9999 -9999 -9999 -182 -183 -186 -9999 -9999 -9999 -9999 -9999 -176 -116 -93 -80 10 401 218 200 227 236 222 206 200 200 200 203 204 204 202 193 211 228 245 254 266 274 283 305 343 369 376 373 379 380 375 391 391 385 378 367 354 337 326 317 320 335 350 368 410 461 517 551 600 658 704 746 786 812 827 828 821 814 809 813 824 839 855 864 894 924 966 996 1020 1039 1061 1082 1108 1145 1224 1239 1271 1270 1260 1271 1276 1277 1276 1273 1276 1303 1311 1347 1370 1339 1318 1312 1319 1323 1329 1318 1308 1288 1264 1216 1163 1091 1059 1051 1047 1009 955 912 888 861 851 846 804 713 588 555 507 459 436 406 375 365 346 326 303 279 257 234 222 193 186 181 172 167 165 169 173 167 155 148 145 145 142 146 145 142 145 147 142 133 123 115 108 104 97 89 77 69 65 64 68 67 65 63 57 35 -29 -176 -9999 -9999 -9999 -9999 -9999 -9999 -9999 -9999 -9999 -9999 -9999 -9999 -9999 -9999 -9999 -9999 -9999 -9999 -9999 -9999 -9999 -9999 -9999 -9999 -9999 -9999 -9999 -9999 -9999 -9999 -9999 -9999 -9999 -9999 -9999 -9999 -9999 -9999 -9999 -9999 -9999 -9999 -9999 -191 -190 -164 -94 -176 -138 -100 -74 -35 -29 -13 -19 -4 -29 -55 -78 -100 -122 -142 -160 -171 -179 -188 -9999 -9999 -9999 -9999 -9999 -9999 -9999 -9999 -9999 -9999 -9999 -9999 -9999 -9999 -9999 -9999 -9999 -9999 -9999 -9999 -9999 -9999 -9999 -9999 -9999 -9999 -9999 -9999 -9999 -9999 -9999 -9999 -9999 -9999 -9999 -9999 -9999 -9999 -9999 -9999 -9999 -9999 -9999 -9999 -9999 -9999 -9999 -9999 -9999 -9999 -9999 -9999 -9999 -9999 -9999 -9999 -9999 -9999 -9999 -9999 -9999 -9999 -9999 -9999 -9999 -9999 -9999 -9999 -9999 -9999 -9999 -9999 -9999 -9999 -9999 -9999 -9999 -9999 -9999 -9999 -9999 -9999 -9999 -9999 -9999 -9999 -9999 -9999 -9999 -9999 -9999 -9999 -9999 -9999 -9999 -9999 -9999 -9999 -9999 -9999 -9999 -9999 -9999 -9999 -9999 -9999 -9999 -9999 -9999 -9999 -9999 -9999 -9999 -9999 -9999 -9999 -9999 -9999 -9999 -9999 -9999 -9999 -9999 -9999 -9999 -9999 -9999 -9999 -9999 -9999 -9999 -9999 -9999 -9999 -9999 -9999 -9999 -9999 -9999 -9999 -9999 -9999 -9999 -9999 -9999 -9999 -9999 -9999 -9999 -9999 -9999 -9999
-9999 -9999 -9999 -9999 -9999 -9999 -9999 -9999 -9999 -9999 -9999 -9999 -9999 -9999 -9999 -9999 -9999 -9999 -9999 -9999 -9999 -9999 -9999 -9999 -9999 -9999 -9999 -9999 -9999 -9999 -9999 -9999 -9999 -9999 -9999 -9999 -9999 -9999 -9999 -9999 -9999 -9999 -9999 -9999 -9999 -9999 -9999 -9999 -9999 -9999 -9999 -9999 -9999 -9999 -9999 -9999 -9999 -9999 -9999 -9999 -9999 -9999 -9999 -9999 -9999 -9999 -9999 -9999 -9999 -9999 -9999 -9999 -9999 -9999 -9999 -9999 -9999 -9999 -9999 -9999 -9999 -9999 -9999 -9999 -9999 -9999 -9999 -9999 -9999 -9999 -9999 -9999 -9999 -9999 -9999 -9999 -197 -183 -182 -9999 -9999 77 158 180 201 224 233 221 202 199 200 203 210 216 210 199 208 220 235 250 262 273 287 307 335 358 369 369 372 373 386 406 396 375 371 367 356 342 331 319 319 330 348 370 413 462 518 558 615 659 706 751 788 814 830 831 825 818 813 820 835 851 867 845 907 956 992 1013 1028 1049 1080 1099 1120 1138 1251 1272 1263 1257 1257 1273 1281 1278 1276 1264 1238 1312 1312 1371 1327 1317 1317 1316 1327 1326 1326 1319 1300 1266 1242 1160 1087 1080 1039 1018 992 937 961 897 868 845 852 820 755 668 583 475 461 439 426 387 366 353 320 304 280 256 236 214 204 199 194 189 171 163 160 158 162 172 158 152 149 152 150 158 156 155 154 152 143 131 126 115 106 99 92 82 75 66 65 64 65 61 59 62 57 48 29 -8 -9999 -9999 -9999 -9999 -9999 -9999 -9999 -9999 -9999 -9999 -9999 -9999 -9999 -9999 -9999 -9999 -9999 -9999 -9999 -9999 -9999 -9999 -9999 -9999 -9999 -9999 -9999 -9999 -9999 -9999 -9999 -9999 -9999 -9999 -9999 -9999 -9999 -9999 -9999 -9999 -9999 -9999 -9999 -9999 -175 -149 -176 -9999 -9999 -170 -167 -164 -108 -46 -69 -28 -71 -97 -114 -131 -149 -167 -182 -186 -188 -9999 -9999 -9999 -9999 -9999 -9999 -9999 -9999 -9999 -9999 -9999 -9999 -9999 -9999 -9999 -9999 -9999 -9999 -9999 -9999 -9999 -9999 -9999 -9999 -9999 -9999 -9999 -9999 -9999 -9999 -9999 -9999 -9999 -9999 -9999 -9999 -9999 -9999 -9999 -9999 -9999 -9999 -9999 -9999 -9999 -9999 -9999 -9999 -9999 -9999 -9999 -9999 -9999 -9999 -9999 -9999 -9999 -9999 -9999 -9999 -9999 -9999 -9999 -9999 -9999 -9999 -9999 -9999 -9999 -9999 -9999 -9999 -9999 -9999 -9999 -9999 -9999 -9999 -9999 -9999 -9999 -9999 -9999 -9999 -9999 -9999 -9999 -9999 -9999 -9999 -9999 -9999 -9999 -9999 -9999 -9999 -9999 -9999 -9999 -9999 -9999 -9999 -9999 -9999 -9999 -9999 -9999 -9999 -9999 -9999 -9999 -9999 -9999 -9999 -9999 -9999 -9999 -9999 -9999 -9999 -9999 -9999 -9999 -9999 -9999 -9999 -9999 -9999 -9999 -9999 -9999 -9999 -9999 -9999 -9999 -9999 -9999 -9999 -9999 -9999 -9999 -9999 -9999 -9999 -9999 -9999 -9999 -9999 -9999 -9999 -9999 -9999 -9999
-9999 -9999 -9999 -9999 -9999 -9999 -9999 -9999 -9999 -9999 -9999 -9999 -9999 -9999 -9999 -9999 -9999 -9999 -9999 -9999 -9999 -9999 -9999 -9999 -9999 -9999 -9999 -9999 -9999 -9999 -9999 -9999 -9999 -9999 -9999 -9999 -9999 -9999 -9999 -9999 -9999 -9999 -9999 -9999 -9999 -9999 -9999 -9999 -9999 -9999 -9999 -9999 -9999 -9999 -9999 -9999 -9999 -9999 -9999 -9999 -9999 -9999 -9999 -9999 -9999 -9999 -9999 -9999 -9999 -9999 -9999 -9999 -9999 -9999 -9999 -9999 -9999 -9999 -9999 -9999 -9999 -9999 -9999 -9999 -9999 -9999 -9999 -9999 -9999 -9999 -9999 -9999 -9999 -9999 -9999 -9999 -9999 -9999 -9999 -9999 -9999 -68 114 148 178 195 215 230 213 201 199 201 224 209 199 197 209 215 227 247 262 275 294 309 329 351 368 369 374 378 397 417 411 393 374 370 358 344 331 317 317 328 354 387 433 478 547 602 654 673 714 761 794 819 836 831 827 823 818 831 850 861 884 903 945 985 1015 1034 1048 1059 1072 1111 1158 1199 1260 1274 1269 1266 1271 1283 1285 1273 1272 1265 1247 1312 1341 1371 1334 1324 1329 1335 1341 1331 1326 1325 1300 1263 1185 1110 1054 1069 1056 995 946 923 935 918 886 867 858 782 674 597 537 483 452 414 375 366 345 325 297 276 258 239 216 193 191 191 187 183 172 164 160 158 161 168 168 165 163 161 160 154 152 150 147 141 132 123 118 111 104 97 92 83 78 72 67 61 59 56 55 57 60 57 43 -10 -176 -9999 -9999 -9999 -9999 -9999 -9999 -9999 -9999 -9999 -9999 -9999 -9999 -9999 -9999 -9999 -9999 -9999 -9999 -9999 -9999 -9999 -9999 -9999 -9999 -9999 -9999 -9999 -9999 -9999 -9999 -9999 -9999 -9999 -9999 -9999 -9999 -9999 -9999 -9999 -9999 -9999 -9999 -187 -184 -184 -9999 -9999 -9999 -189 -191 -193 -176 -128 -123 -164 -164 -152 -152 -160 -171 -184 -9999 -9999 -9999 -9999 -9999 -9999 -9999 -9999 -9999 -9999 -9999 -9999 -9999 -9999 -9999 -9999 -9999 -9999 -9999 -9999 -9999 -9999 -9999 -9999 -9999 -9999 -9999 -9999 -9999 -9999 -9999 -9999 -9999 -9999 -9999 -9999 -9999 -9999 -9999 -9999 -9999 -9999 -9999 -9999 -9999 -9999 -9999 -9999 -9999 -9999 -9999 -9999 -9999 -9999 -9999 -9999 -9999 -9999 -9999 -9999 -9999 -9999 -9999 -9999 -9999 -9999 -9999 -9999 -9999 -9999 -9999 -9999 -9999 -9999 -9999 -9999 -9999 -9999 -9999 -9999 -9999 -9999 -9999 -9999 -9999 -9999 -9999 -9999 -9999 -9999 -9999 -9999 -9999 -9999 -9999 -9999 -9999 -9999 -9999 -9999 -9999 -9999 -9999 -9999 -9999 -9999 -9999 -9999 -9999 -9999 -9999 -9999 -9999 -9999 -9999 -9999 -9999 -9999 -9999 -9999 -9999 -9999 -9999 -9999 -9999 -9999 -9999 -9999 -9999 -9999 -9999 -9999 -9999 -9999 -9999 -9999 -9999 -9999 -9999 -9999 -9999 -9999 -9999 -9999 -9999 -9999 -9999 -9999 -9999 -9999 -9999 -9999 -9999 -9999 -9999 -9999
-9999 -9999 -9999 -9999 -9999 -9999 -9999 -9999 -9999 -9999 -9999 -9999 -9999 -9999 -9999 -9999 -9999 -9999 -9999 -9999 -9999 -9999 -9999 -9999 -9999 -9999 -9999 -9999 -9999 -9999 -9999 -9999 -9999 -9999 -9999 -9999 -9999 -9999 -9999 -9999 -9999 -9999 -9999 -9999 -9999 -9999 -9999 -9999 -9999 -9999 -9999 -9999 -9999 -9999 -9999 -9999 -9999 -9999 -9999 -9999 -9999 -9999 -9999 -9999 -9999 -9999 -9999 -9999 -9999 -9999 -9999 -9999 -9999 -9999 -9999 -9999 -9999 -9999 -9999 -9999 -9999 -9999 -9999 -9999 -9999 -9999 -9999 -9999 -9999 -9999 -9999 -9999 -9999 -9999 -9999 -9999 -9999 -9999 -9999 -9999 -9999 -176 62 123 136 167 193 214 228 227 215 212 225 208 202 207 218 220 231 248 262 276 293 308 324 346 365 373 372 374 399 421 435 422 375 365 359 345 332 320 320 333 366 418 477 538 581 637 709 718 740 772 803 829 843 841 835 833 843 862 881 887 906 938 981 1015 1039 1058 1072 1075 1068 1137 1210 1257 1272 1275 1274 1277 1285 1290 1282 1265 1285 1305 1317 1352 1372 1339 1324 1331 1340 1343 1328 1319 1314 1309 1264 1162 1107 1096 1019 1045 976 950 929 912 903 878 869 839 795 701 608 528 488 464 449 408 372 365 324 299 272 249 237 226 206 191 187 185 176 176 169 165 161 158 158 159 161 156 149 148 146 139 141 138 137 127 119 112 110 106 101 94 93 81 81 77 66 56 53 50 49 48 56 57 44 -7 -176 -9999 -9999 -9999 -9999 -9999 -9999 -9999 -9999 -9999 -9999 -9999 -9999 -9999 -9999 -9999 -9999 -9999 -9999 -9999 -9999 -9999 -9999 -9999 -9999 -9999 -9999 -9999 -9999 -9999 -9999 -9999 -9999 -9999 -9999 -9999 -9999 -9999 -9999 -9999 -9999 -9999 -9999 -9999 -9999 -9999 -9999 -9999 -9999 -189 -190 -197 -9999 -9999 -173 -190 -188 -177 -175 -179 -186 -9999 -9999 -9999 -9999 -9999 -9999 -9999 -9999 -9999 -9999 -9999 -9999 -9999 -9999 -9999 -9999 -9999 -9999 -9999 -9999 -9999 -9999 -9999 -9999 -9999 -9999 -9999 -9999 -9999 -9999 -9999 -9999 -9999 -9999 -9999 -9999 -9999 -9999 -9999 -9999 -9999 -9999 -9999 -9999 -9999 -9999 -9999 -9999 -9999 -9999 -9999 -9999 -9999 -9999 -9999 -9999 -9999 -9999 -9999 -9999 -9999 -9999 -9999 -9999 -9999 -9999 -9999 -9999 -9999 -9999 -9999 -9999 -9999 -9999 -9999 -9999 -9999 -9999 -9999 -9999 -9999 -9999 -9999 -9999 -9999 -9999 -9999 -9999 -9999 -9999 -9999 -9999 -9999 -9999 -9999 -9999 -9999 -9999 -9999 -9999 -9999 -9999 -9999 -9999 -9999 -9999 -9999 -9999 -9999 -9999 -9999 -9999 -9999 -9999 -9999 -9999 -9999 -9999 -9999 -9999 -9999 -9999 -9999 -9999 -9999 -9999 -9999 -9999 -9999 -9999 -9999 -9999 -9999 -9999 -9999 -9999 -9999 -9999 -9999 -9999 -9999 -9999 -9999 -9999 -9999 -9999 -9999 -9999 -9999 -9999 -9999 -9999 -9999 -9999 -9999 -9999 -9999
-9999 -9999 -9999 -9999 -9999 -9999 -9999 -9999 -9999 -9999 -9999 -9999 -9999 -9999 -9999 -9999 -9999 -9999 -9999 -9999 -9999 -9999 -9999 -9999 -9999 -9999 -9999 -9999 -9999 -9999 -9999 -9999 -9999 -9999 -9999 -9999 -9999 -9999 -9999 -9999 -9999 -9999 -9999 -9999 -9999 -9999 -9999 -9999 -9999 -9999 -9999 -9999 -9999 -9999 -9999 -9999 -9999 -9999 -9999 -9999 -9999 -9999 -9999 -9999 -9999 -9999 -9999 -9999 -9999 -9999 -9999 -9999 -9999 -9999 -9999 -9999 -9999 -9999 -9999 -9999 -9999 -9999 -9999 -9999 -9999 -9999 -9999 -9999 -9999 -9999 -9999 -9999 -9999 -9999 -9999 -9999 -9999 -9999 -9999 -9999 -9999 -70 23 90 111 137 175 191 206 215 225 225 214 205 204 206 211 216 232 249 261 275 290 305 315 339 365 383 376 379 400 409 417 455 403 373 367 354 338 323 322 338 376 447 507 554 592 634 702 734 761 785 817 846 851 853 847 845 866 885 901 907 924 964 1005 1043 1065 1079 1091 1098 1128 1208 1275 1290 1290 1284 1289 1300 1299 1289 1273 1255 1317 1332 1357 1372 1361 1331 1330 1340 1345 1337 1327 1322 1311 1305 1260 1151 1088 1080 1057 1050 983 950 927 909 895 876 850 770 740 663 538 493 474 451 428 395 364 338 300 274 252 233 218 204 189 184 180 175 170 168 164 162 159 158 157 156 154 151 146 142 139 134 132 129 126 118 113 109 105 99 93 89 85 75 70 65 57 49 45 43 42 42 47 52 42 -10 -176 -9999 -9999 -9999 -9999 -9999 -9999 -9999 -9999 -9999 -9999 -9999 -9999 -9999 -9999 -9999 -9999 -9999 -9999 -9999 -9999 -9999 -9999 -9999 -9999 -9999 -9999 -9999 -9999 -9999 -9999 -9999 -9999 -9999 -9999 -9999 -9999 -9999 -9999 -9999 -9999 -9999 -9999 -9999 -9999 -9999 -9999 -9999 -187 -187 -188 -9999 -9999 -9999 -178 -188 -188 -186 -186 -9999 -9999 -9999 -9999 -9999 -9999 -9999 -9999 -9999 -9999 -9999 -9999 -9999 -9999 -9999 -9999 -9999 -9999 -9999 -9999 -9999 -9999 -9999 -9999 -9999 -9999 -9999 -9999 -9999 -9999 -9999 -9999 -9999 -9999 -9999 -9999 -9999 -9999 -9999 -9999 -9999 -9999 -9999 -9999 -9999 -9999 -9999 -9999 -9999 -9999 -9999 -9999 -9999 -9999 -9999 -9999 -9999 -9999 -9999 -9999 -9999 -9999 -9999 -9999 -9999 -9999 -9999 -9999 -9999 -9999 -9999 -9999 -9999 -9999 -9999 -9999 -9999 -9999 -9999 -9999 -9999 -9999 -9999 -9999 -9999 -9999 -9999 -9999 -9999 -9999 -9999 -9999 -9999 -9999 -9999 -9999 -9999 -9999 -9999 -9999 -9999 -9999 -9999 -9999 -9999 -9999 -9999 -9999 -9999 -9999 -9999 -9999 -9999 -9999 -9999 -9999 -9999 -9999 -9999 -9999 -9999 -9999 -9999 -9999 -9999 -9999 -9999 -9999 -9999 -9999 -9999 -9999 -9999 -9999 -9999 -9999 -9999 -9999 -9999 -9999 -9999 -9999 -9999 -9999 -9999 -9999 -9999 -9999 -9999 -9999 -9999 -9999 -9999 -9999 -9999 -9999 -9999 -9999 -9999
-9999 -9999 -9999 -9999 -9999 -9999 -9999 -9999 -9999 -9999 -9999 -9999 -9999 -9999 -9999 -9999 -9999 -9999 -9999 -9999 -9999 -9999 -9999 -9999 -9999 -9999 -9999 -9999 -9999 -9999 -9999 -9999 -9999 -9999 -9999 -9999 -9999 -9999 -9999 -9999 -9999 -9999 -9999 -9999 -9999 -9999 -9999 -9999 -9999 -9999 -9999 -9999 -9999 -9999 -9999 -9999 -9999 -9999 -9999 -9999 -9999 -9999 -9999 -9999 -9999 -9999 -9999 -9999 -9999 -9999 -9999 -9999 -9999 -9999 -9999 -9999 -9999 -9999 -9999 -9999 -9999 -9999 -9999 -9999 -9999 -9999 -9999 -9999 -9999 -9999 -9999 -9999 -9999 -9999 -9999 -9999 -9999 -9999 -9999 -9999 -9999 -9999 -40 65 81 100 135 174 189 209 213 204 196 194 194 195 200 211 229 238 262 276 281 300 309 326 352 396 387 375 401 407 421 458 415 386 371 363 349 326 328 354 385 468 544 581 608 649 711 753 789 814 847 878 879 873 867 872 895 908 925 934 967 1003 1033 1075 1092 1098 1108 1116 1174 1263 1294 1297 1303 1290 1297 1308 1309 1293 1294 1303 1334 1346 1374 1351 1343 1333 1339 1345 1333 1326 1314 1307 1284 1263 1190 1111 1046 1062 1055 1018 965 940 925 908 891 860 790 724 660 542 507 483 475 438 405 374 344 313 273 252 236 221 204 190 184 183 178 169 169 165 161 161 160 160 159 157 153 153 149 144 141 133 129 124 121 114 111 107 103 91 83 83 76 65 58 52 48 41 39 38 36 37 38 46 40 -8 -176 -9999 -9999 -9999 -9999 -9999 -9999 -9999 -9999 -9999 -9999 -9999 -9999 -9999 -9999 -9999 -9999 -9999 -9999 -9999 -9999 -9999 -9999 -9999 -9999 -9999 -9999 -9999 -9999 -9999 -9999 -9999 -9999 -9999 -9999 -9999 -9999 -9999 -9999 -9999 -9999 -9999 -9999 -9999 -9999 -9999 -9999 -9999 -186 -186 -187 -9999 -9999 -187 -182 -187 -9999 -9999 -9999 -9999 -9999 -9999 -9999 -9999 -9999 -9999 -9999 -9999 -9999 -9999 -9999 -9999 -9999 -9999 -9999 -9999 -9999 -9999 -9999 -9999 -9999 -9999 -9999 -9999 -9999 -9999 -9999 -9999 -9999 -9999 -9999 -9999 -9999 -9999 -9999 -9999 -9999 -9999 -9999 -9999 -9999 -9999 -9999 -9999 -9999 -9999 -9999 -9999 -9999 -9999 -9999 -9999 -9999 -9999 -9999 -9999 -9999 -9999 -9999 -9999 -9999 -9999 -9999 -9999 -9999 -9999 -9999 -9999 -9999 -9999 -9999 -9999 -9999 -9999 -9999 -9999 -9999 -9999 -9999 -9999 -9999 -9999 -9999 -9999 -9999 -9999 -9999 -9999 -9999 -9999 -9999 -9999 -9999 -9999 -9999 -9999 -9999 -9999 -9999 -9999 -9999 -9999 -9999 -9999 -9999 -9999 -9999 -9999 -9999 -9999 -9999 -9999 -9999 -9999 -9999 -9999 -9999 -9999 -9999 -9999 -9999 -9999 -9999 -9999 -9999 -9999 -9999 -9999 -9999 -9999 -9999 -9999 -9999 -9999 -9999 -9999 -9999 -9999 -9999 -9999 -9999 -9999 -9999 -9999 -9999 -9999 -9999 -9999 -9999 -9999 -9999 -9999 -9999 -9999 -9999 -9999 -9999 -9999
-9999 -9999 -9999 -9999 -9999 -9999 -9999 -9999 -9999 -9999 -9999 -9999 -9999 -9999 -9999 -9999 -9999 -9999 -9999 -9999 -9999 -9999 -9999 -9999 -9999 -9999 -9999 -9999 -9999 -9999 -9999 -9999 -9999 -9999 -9999 -9999 -9999 -9999 -9999 -9999 -9999 -9999 -9999 -9999 -9999 -9999 -9999 -9999 -9999 -9999 -9999 -9999 -9999 -9999 -9999 -9999 -9999 -9999 -9999 -9999 -9999 -9999 -9999 -9999 -9999 -9999 -9999 -9999 -9999 -9999 -9999 -9999 -9999 -9999 -9999 -9999 -9999 -9999 -9999 -9999 -9999 -9999 -9999 -9999 -9999 -9999 -9999 -9999 -9999 -9999 -9999 -9999 -9999 -9999 -9999 -9999 -9999 -9999 -9999 -9999 -9999 -9999 -176 0 62 84 113 169 178 198 203 201 197 196 199 202 208 214 227 238 257 273 281 297 303 317 348 380 402 375 398 427 462 433 403 392 382 375 357 332 332 350 375 480 551 598 619 661 720 771 821 844 870 914 901 891 883 891 908 922 940 966 998 1046 1074 1098 1116 1107 1098 1145 1207 1273 1292 1290 1287 1313 1309 1310 1312 1299 1304 1304 1333 1355 1375 1351 1339 1338 1350 1343 1327 1313 1284 1285 1243 1116 1126 1093 1046 1052 1031 974 924 925 934 914 890 846 704 623 558 590 539 481 455 411 372 347 318 295 264 241 225 207 191 187 186 187 188 179 178 173 169 168 168 169 168 164 164 164 163 159 148 140 134 131 128 121 114 107 96 85 78 75 68 60 55 49 46 42 40 39 37 37 39 45 40 -10 -176 -9999 -9999 -9999 -9999 -9999 -9999 -9999 -9999 -9999 -9999 -9999 -9999 -9999 -9999 -9999 -9999 -9999 -9999 -9999 -9999 -9999 -9999 -9999 -9999 -9999 -9999 -9999 -9999 -9999 -9999 -9999 -9999 -9999 -9999 -9999 -9999 -9999 -9999 -9999 -9999 -9999 -9999 -9999 -9999 -9999 -9999 -9999 -9999 -186 -187 -9999 -9999 -9999 -186 -187 -9999 -9999 -9999 -9999 -9999 -9999 -9999 -9999 -9999 -9999 -9999 -9999 -9999 -9999 -9999 -9999 -9999 -9999 -9999 -9999 -9999 -9999 -9999 -9999 -9999 -9999 -9999 -9999 -9999 -9999 -9999 -9999 -9999 -9999 -9999 -9999 -9999 -9999 -9999 -9999 -9999 -9999 -9999 -9999 -9999 -9999 -9999 -9999 -9999 -9999 -9999 -9999 -9999 -9999 -9999 -9999 -9999 -9999 -9999 -9999 -9999 -9999 -9999 -9999 -9999 -9999 -9999 -9999 -9999 -9999 -9999 -9999 -9999 -9999 -9999 -9999 -9999 -9999 -9999 -9999 -9999 -9999 -9999 -9999 -9999 -9999 -9999 -9999 -9999 -9999 -9999 -9999 -9999 -9999 -9999 -9999 -9999 -9999 -9999 -9999 -9999 -9999 -9999 -9999 -9999 -9999 -9999 -9999 -9999 -9999 -9999 -9999 -9999 -9999 -9999 -9999 -9999 -9999 -9999 -9999 -9999 -9999 -9999 -9999 -9999 -9999 -9999 -9999 -9999 -9999 -9999 -9999 -9999 -9999 -9999 -9999 -9999 -9999 -9999 -9999 -9999 -9999 -9999 -9999 -9999 -9999 -9999 -9999 -9999 -9999 -9999 -9999 -9999 -9999 -9999 -9999 -9999 -9999 -9999 -9999 -9999 -9999
